6.866420 -106.433998 109.445999
-48.489601 -121.147003 98.589996
-3.134470 -89.352402 114.945000
11.293800 -114.350998 124.146004
-20.091101 -134.740005 108.670998
-29.414000 -94.775200 98.829002
-57.262600 -120.134003 91.315002
-16.941500 -120.355003 116.515999
9.462170 -92.153999 127.137001
-37.087700 -101.198997 94.044998
21.049000 -112.232002 128.561005
-10.285100 -135.143005 113.041000
-13.927500 -112.344002 119.766998
12.448200 -124.313004 126.129997
-38.340698 -133.714005 93.501198
-11.220000 -98.316002 117.355003
-29.297100 -100.681000 96.745102
-26.858700 -97.841499 100.558998
-43.515800 -87.515900 99.061798
-36.321201 -139.181000 103.767998
20.934401 -111.269997 116.028000
0.623205 -133.341003 103.117996
-51.968800 -130.548004 103.401001
-3.144370 -100.223999 111.723000
-13.339500 -108.421997 115.935997
-8.171110 -91.826500 112.242996
-3.496440 -88.235703 133.011002
-5.753110 -101.470001 115.403999
-54.422501 -124.475998 87.499100
-27.148001 -98.412903 98.294800
12.349900 -127.689003 115.353996
23.736099 -117.384003 132.195999
-28.444799 -105.682999 121.212997
-5.865670 -97.012299 112.550003
-33.199799 -113.602997 104.346001
-44.171700 -127.143997 98.114799
-22.261801 -108.681000 120.248001
6.186180 -113.806000 106.379997
-48.003799 -118.595001 96.167297
-31.721800 -112.319000 107.380997
21.173599 -125.362000 131.403000
-36.815800 -139.490005 105.504997
-50.685799 -134.026993 96.095100
-40.645802 -88.377602 99.080704
5.157760 -93.781097 126.675003
14.493500 -102.179001 115.755997
-7.384980 -109.535004 94.796097
-12.008800 -126.502998 113.614998
-5.364880 -89.828697 124.473999
15.204900 -128.695999 128.139999
-38.680000 -108.363998 90.850304
-10.924000 -124.922997 90.671898
10.529700 -113.665001 123.857002
-31.054001 -103.347000 112.925003
-17.056700 -137.074005 104.484001
-30.720900 -106.641998 84.869102
3.763080 -81.211800 116.551003
17.817200 -110.427002 124.100998
-11.746000 -131.792007 90.957100
-2.201070 -124.597000 98.278702
-37.044102 -92.845497 94.787201
-31.174801 -124.871002 94.597702
16.699100 -126.694000 115.318001
5.256900 -122.039001 115.155998
-3.394260 -86.500298 125.481003
-34.532902 -112.809998 93.348900
-56.318802 -128.839996 100.139000
-24.297300 -114.244003 114.039001
12.549100 -101.831001 108.857002
-36.423500 -99.725403 94.205597
-31.395800 -101.445999 109.074997
-0.684643 -91.052101 123.804001
-32.377102 -135.046997 106.806999
6.743110 -122.848000 111.365997
0.209364 -139.498993 110.132004
-19.668600 -138.029007 101.646004
-3.341740 -104.203003 115.651001
-8.307140 -109.567001 119.039001
-48.629101 -122.203003 98.258797
-1.098090 -78.782898 119.556000
-53.856800 -118.742996 90.408997
5.105750 -90.453201 131.229996
-29.147499 -118.084000 87.572899
1.234780 -138.772995 109.083000
-32.535999 -97.521202 78.630203
-2.503430 -91.774803 130.949997
-11.847100 -135.496002 111.456001
-10.151500 -109.525002 92.521103
-36.795898 -138.237000 100.903999
-31.010799 -104.807999 97.254303
-40.739899 -124.232002 98.302002
2.820540 -92.080299 130.505005
-48.993698 -91.282600 97.085403
-37.125702 -116.279999 90.232903
-26.131201 -100.469002 116.074997
-28.707701 -97.069504 102.191002
-10.145600 -108.620003 92.996696
-9.865920 -131.154007 113.036003
-38.226101 -90.600700 97.761398
24.666700 -116.797997 119.983002
10.938200 -113.970001 107.472000
-0.677602 -81.788101 128.854996
-12.569000 -114.557999 119.456001
-22.986500 -138.994003 106.720001
-22.243900 -116.176003 117.379997
-28.771500 -102.098999 97.191200
-32.630600 -108.623001 111.297997
-26.973700 -93.553101 96.695000
-26.977900 -93.368202 99.556198
-44.554798 -132.222000 84.665298
-4.045950 -93.409698 110.041000
14.646900 -120.970001 129.740997
17.992399 -125.796997 117.184998
-6.032510 -95.486298 113.319000
-39.849899 -95.357201 94.119499
23.007500 -130.535995 126.257004
-33.652100 -133.380997 106.974998
-22.369900 -117.093002 118.690002
-30.171200 -100.669998 85.406502
5.813190 -108.369003 110.856003
-6.186600 -79.628601 124.890999
-48.953701 -93.805603 89.839798
-47.018002 -133.996994 92.811699
-35.541199 -129.931000 102.030998
-29.691900 -96.253502 96.401604
-48.699501 -95.909103 88.733299
-36.044701 -139.328995 104.568001
-29.214199 -109.211998 116.967003
-2.021240 -91.091698 128.653000
-11.792600 -133.561996 112.845001
-55.672001 -125.775002 99.915703
17.363501 -130.498001 128.985001
6.542630 -116.297997 106.457001
-29.636101 -111.772003 108.568001
-8.247930 -94.763298 112.945999
-39.336498 -111.046997 90.379799
-28.543800 -106.684998 93.060402
-28.795601 -101.315002 101.054001
-22.846701 -129.154007 109.666000
-8.918350 -93.245300 110.050003
-3.154110 -85.022102 128.233994
0.229299 -125.698997 102.671997
-3.597060 -86.355103 130.582993
-12.459900 -108.434998 117.453003
17.509600 -130.188004 128.035004
-32.695999 -127.877998 94.488899
-44.988701 -98.765701 92.062698
-30.204300 -126.718002 102.079002
6.083160 -92.269203 128.746002
4.590720 -89.481796 131.425995
-1.161120 -79.204597 128.048004
25.420500 -121.725998 130.203003
-34.418999 -111.489998 77.692902
-8.034740 -98.348503 112.819000
-31.720800 -135.401993 106.227997
-27.743900 -101.999001 101.146004
0.738945 -91.368500 126.445000
-30.850901 -106.750000 94.057098
-20.767500 -137.981995 95.863297
-9.676690 -99.418503 117.096001
15.586600 -97.059799 119.779999
-2.541520 -86.363899 133.938995
-44.148998 -97.532600 94.101196
-23.723400 -99.736198 115.946999
-47.882198 -134.207001 92.414703
-12.038600 -124.767998 113.445000
-9.857180 -134.919006 96.912598
-35.533401 -88.761002 98.990196
-33.750599 -130.218994 106.514000
-1.859900 -96.139603 114.210999
-33.195499 -120.916000 96.466797
8.044480 -110.398003 114.273003
-2.039600 -139.705994 103.107002
-7.067000 -84.916702 119.519997
-31.854300 -137.033005 94.932701
-24.999100 -140.865005 94.762497
-36.544800 -114.183998 79.847603
3.734280 -87.402199 109.226997
-33.041302 -120.226997 96.373001
9.701190 -117.009003 129.511002
-11.504800 -127.699997 90.579300
-30.625200 -132.673004 94.236702
-40.558601 -116.500000 94.332397
12.623800 -120.806000 130.207993
-29.178699 -115.577003 113.117996
-32.362400 -115.591003 90.543098
-47.028400 -115.575996 89.872597
-19.305201 -136.076004 95.451202
-38.963299 -121.000999 98.226601
-23.253300 -114.291000 116.360001
-26.591499 -116.681999 115.834000
-2.078670 -103.952003 115.263000
3.921680 -117.064003 115.927002
-27.405800 -139.432999 108.716003
9.858810 -119.292999 107.844002
-4.226490 -124.428001 96.976303
-1.927340 -130.994003 115.841003
6.756440 -107.141998 114.441002
-25.177500 -101.227997 99.311401
9.294910 -110.119003 111.946999
-0.357124 -76.315804 125.593002
-27.755899 -125.983002 105.655998
-27.609400 -101.156998 115.635002
-39.025200 -100.735001 94.263802
-24.078400 -115.202003 115.242996
-1.729660 -103.440002 114.189003
-13.246200 -120.625000 91.344803
-33.179798 -140.233994 106.871002
-34.288601 -114.112999 81.209396
1.974610 -138.953995 107.595001
26.970400 -118.708000 126.848000
-12.562500 -137.417007 115.180000
4.138880 -108.443001 113.268997
-34.732300 -109.987999 102.022003
25.030701 -124.032997 121.143997
-47.334900 -121.863998 100.884003
-48.140598 -131.485992 84.825897
0.950637 -99.730904 117.924004
1.829220 -139.192993 107.165001
-27.087900 -105.126999 92.690498
-4.812180 -99.529900 113.865997
-22.164700 -96.505600 106.352997
-35.976898 -84.728302 86.416000
-40.278198 -87.003403 95.101799
-10.466900 -132.406998 92.684196
-36.191002 -123.218002 83.621002
-13.930400 -128.093994 113.998001
-25.061100 -126.600998 90.346199
-18.666000 -110.056999 118.625000
-45.516499 -88.549004 98.482101
-23.595100 -110.667999 117.899002
-33.233601 -127.320000 101.209000
21.673000 -125.639999 130.498993
-33.094398 -114.458000 84.416100
-30.253901 -102.447998 81.250702
-12.844600 -140.005997 110.129997
-33.448502 -93.889999 82.565300
-31.531799 -106.785004 82.267502
-22.846600 -112.787003 115.985001
-23.402000 -110.642998 114.886002
-3.323200 -85.654800 126.739998
-10.204900 -100.640999 117.761002
21.288500 -111.315002 114.912003
-12.505800 -98.703102 118.234001
-56.931099 -126.418999 92.566002
-50.842999 -116.371002 94.315201
-39.347000 -133.270996 93.267403
7.509290 -111.357002 116.266998
21.099001 -124.568001 133.164001
-6.259500 -90.716599 117.304001
-34.466400 -84.458298 88.362801
-46.159100 -98.461998 78.431503
0.828474 -79.545097 119.277000
-31.313601 -100.913002 100.997002
-40.155800 -101.596001 74.301003
-56.043800 -126.448997 97.593498
-4.267910 -83.459297 120.075996
-23.858700 -111.680000 115.070999
12.067200 -92.293602 125.045998
-32.591499 -120.657997 85.317802
2.016070 -138.371002 106.245003
-21.869101 -113.084999 115.625999
-24.747200 -132.593994 107.721001
-32.994400 -115.519997 93.517998
-24.563999 -121.431000 88.381203
4.780820 -88.393799 132.100998
0.909644 -86.583603 112.473999
-12.175900 -131.533005 90.686798
-19.647100 -99.897797 117.402000
-34.775398 -83.449501 93.869797
16.408800 -98.943497 116.443001
-37.799400 -121.467003 82.393799
-24.027000 -116.824997 116.342003
-19.706900 -114.419998 118.833000
-17.304600 -136.358002 103.974998
-7.738140 -110.721001 118.894997
-10.084500 -138.309998 116.454002
-0.032378 -139.619995 102.181000
-35.202999 -126.973999 96.461700
-30.177401 -102.890999 97.059601
-41.991299 -121.514000 82.475304
-5.783320 -89.901001 124.116997
15.438300 -116.371002 129.757996
-26.523300 -93.206802 97.377197
-58.668900 -122.727997 95.246101
-40.873199 -123.042999 100.406998
-29.753099 -102.223999 102.142998
-6.733290 -100.644997 114.480003
-0.491839 -91.897003 130.145004
-49.209400 -127.922997 99.589798
-40.989799 -82.793800 88.661102
-0.078971 -137.552994 115.929001
-13.938800 -110.232002 115.624001
-30.019699 -134.656006 107.313004
-47.948502 -95.578003 91.143303
0.156491 -105.629997 114.492996
-1.169580 -77.608398 121.569000
-11.261000 -135.789993 110.605003
-25.134800 -100.489998 118.686996
19.728300 -109.141998 119.668999
-34.166100 -115.597000 85.329002
-35.280998 -106.904999 91.433899
-46.405499 -97.955299 91.563698
1.380700 -138.348999 109.167999
-5.184140 -80.715698 128.016006
-23.591200 -133.341003 106.950996
-20.971300 -140.041000 103.234001
-20.507500 -95.261703 108.607002
-48.637001 -90.648697 93.726196
-40.725899 -103.325996 93.742401
-36.499298 -121.566002 83.733398
-23.505301 -132.591995 107.599998
12.207900 -112.992996 124.036003
-30.956301 -139.462006 108.127998
-0.488289 -90.588799 126.334999
-3.214130 -86.813499 133.414001
-28.677401 -128.130997 103.533997
-6.640530 -139.820007 99.393997
-11.654700 -102.015999 120.051003
-21.290199 -116.341003 118.153999
-3.199450 -84.838402 127.663002
-50.072601 -126.610001 98.311798
-51.003700 -132.488998 102.133003
-25.750500 -139.953995 101.680000
-30.056900 -98.867500 98.982002
-1.502620 -126.250999 112.002998
-43.448898 -102.244003 74.249397
-2.541870 -130.005997 115.497002
-31.511101 -102.514999 111.695000
-35.783699 -105.490997 91.546501
-13.928100 -138.990997 111.792999
-17.490900 -120.255997 116.542000
-47.829800 -88.928200 97.929901
-0.922195 -105.373001 114.386002
-2.736510 -102.903000 112.603996
-56.919300 -127.098999 97.830902
-6.259420 -110.594002 95.020699
-26.646700 -112.544998 88.098503
-29.744699 -106.200996 117.855003
-55.435001 -120.544998 100.913002
-31.239799 -105.226997 88.340202
-44.412998 -117.848000 102.658997
-38.144798 -92.652496 94.361298
-41.195599 -111.809998 78.640404
-48.695599 -121.308998 99.546898
-47.604000 -118.061996 96.678902
13.426400 -123.516998 126.498001
0.515389 -140.119995 112.522003
-28.747601 -112.200996 87.675903
-46.829800 -87.918297 95.623001
-0.350247 -139.401001 113.342003
-46.135700 -124.453003 99.272003
-14.120200 -98.700104 119.166000
-1.332900 -92.463097 122.945000
-31.982100 -109.759003 111.045998
14.834600 -94.920303 123.106003
-4.779560 -113.239998 94.583397
-15.499600 -113.182999 119.464996
5.311760 -120.371002 109.926003
-4.654880 -131.882004 96.150803
-35.256699 -120.294998 97.025703
-12.866600 -110.793999 118.723999
2.186080 -105.825996 104.806999
-28.986900 -109.786003 116.223999
-23.385300 -99.119202 102.478996
11.836000 -101.007004 108.904999
-13.588700 -139.285995 109.994003
-12.589600 -139.753006 107.136002
-34.197601 -104.028000 91.444397
-21.225700 -112.294998 116.445999
5.669440 -87.908302 132.675003
-13.599800 -134.850006 95.249199
0.017254 -104.126999 114.772003
11.283500 -123.018997 123.956001
-0.646017 -140.356003 103.476997
-33.001598 -107.617996 104.398003
-4.713420 -89.175201 125.862999
-40.944500 -117.458000 100.387001
-41.482601 -125.681000 98.866096
-37.307499 -140.317001 102.541000
-31.390100 -102.421997 96.576401
-38.270302 -100.801003 73.867302
-36.161301 -138.369995 104.191002
3.541250 -92.150299 107.236000
-17.443899 -98.454002 116.797997
7.733170 -120.015999 108.231003
-26.146500 -136.309006 107.766998
-34.712200 -135.766998 99.976402
-32.771599 -91.810303 91.959396
12.817700 -125.302002 123.601997
-3.260650 -99.761803 113.889999
-48.068100 -99.041603 79.677101
-29.399099 -103.931999 115.361000
-0.119442 -126.712997 110.202003
9.061970 -105.500999 110.752998
-47.277500 -118.650002 95.430397
-4.006110 -133.651993 97.164597
-41.723499 -101.016998 74.646599
14.700300 -100.091003 117.652000
-34.961102 -97.551498 96.181099
-2.809620 -94.248299 120.264000
-9.087760 -125.676003 88.903702
-41.359100 -83.884300 85.520599
-31.675699 -105.554001 97.314598
-30.271900 -101.763000 96.607300
0.831829 -139.279007 109.371002
-16.202700 -110.856003 90.836899
-15.537200 -108.823997 115.452003
11.677800 -103.992996 117.241997
-3.808350 -94.579002 112.134003
-47.806198 -121.809998 98.788200
-38.236000 -96.388901 93.483498
7.528830 -118.248001 127.726997
22.793699 -120.070999 118.000999
-25.041599 -120.484001 113.921997
15.378300 -123.764999 132.251007
-27.698999 -134.636993 106.865997
-30.629499 -105.560997 80.543999
3.384090 -77.001602 125.742996
-2.866390 -88.507202 132.455994
7.718970 -114.069000 106.209999
-3.382790 -126.075996 90.900299
-10.991500 -126.822998 90.762299
-51.985500 -126.441002 100.132004
-13.178200 -138.753006 111.258003
-18.287600 -111.865997 117.978996
-30.879601 -117.057999 105.335999
18.457899 -130.772995 126.695999
-7.633370 -94.961800 113.365997
-20.648199 -121.982002 114.070000
-34.100899 -83.112297 91.314697
8.353170 -116.585999 124.605003
-2.941100 -95.899200 112.225998
-37.197399 -119.033997 84.055099
5.531150 -88.356796 131.681000
-48.540401 -129.509003 98.218903
-12.584000 -131.192001 91.236099
-12.987900 -137.417999 105.898003
14.364100 -120.315002 130.042007
1.328610 -79.441597 119.033997
-46.724201 -85.821899 91.431099
26.665600 -120.389999 128.190002
-31.814501 -102.882004 105.555000
-4.325070 -92.679398 120.953003
-19.653000 -135.481995 93.467598
-10.586200 -139.436005 100.960999
0.924579 -126.702003 106.294998
-30.391701 -104.561996 96.590103
21.937000 -126.871002 120.078003
-32.736599 -114.996002 90.070297
-21.522499 -137.289993 104.615997
-55.055199 -134.337997 96.980400
-33.660500 -123.361000 84.831299
16.329201 -97.249199 119.985001
-38.601002 -130.488998 84.435501
-8.784880 -95.810501 113.682999
3.729650 -91.628502 128.324005
-43.358700 -131.501999 95.988899
23.089600 -128.985001 123.612000
-0.570837 -140.358994 105.496002
-39.940800 -118.509003 99.428497
18.854000 -129.567001 123.809998
-48.918800 -134.798996 93.688499
1.216310 -132.061005 104.121002
-9.693330 -138.871994 115.408997
-27.201200 -100.964996 100.716003
-9.077180 -122.565002 92.334702
4.522560 -77.949898 123.738998
-39.256302 -87.014397 97.608902
-4.930830 -126.178001 113.389999
-26.850500 -108.207001 120.475998
-32.577499 -115.977997 90.194504
-1.693890 -90.867500 123.817001
-25.240200 -125.318001 89.581100
6.329340 -110.664001 113.010002
-22.234301 -133.210007 107.948997
-23.925800 -125.035004 108.315002
-21.733500 -139.455002 103.432999
-4.208060 -95.389503 112.575996
-1.686940 -101.820999 108.628998
-5.041290 -86.672302 125.037003
-22.134899 -137.199005 104.095001
-4.077940 -78.355499 122.523003
-19.634701 -135.735992 97.420601
1.257940 -82.705002 128.979004
-3.169040 -95.253899 118.447998
-25.153601 -99.210297 111.266998
-11.977700 -112.148003 90.952103
17.497400 -113.917999 110.587997
7.018850 -92.698303 128.104996
-3.095970 -94.758797 111.675003
-31.831400 -113.311996 83.752701
4.084480 -93.795403 126.065002
-21.981600 -96.467201 105.769997
-22.521500 -101.265999 121.836998
-34.751801 -120.768997 83.752800
-19.335199 -128.826004 111.522003
-21.642700 -99.193100 117.668999
-27.163099 -113.902000 111.483002
15.694000 -93.668800 122.776001
-57.964298 -119.614998 96.283096
5.131160 -107.820999 112.259003
-31.209299 -114.758003 90.167000
-11.464700 -126.477997 90.072098
4.398620 -119.597000 108.121002
-29.708500 -112.775002 109.819000
-4.423550 -81.973503 120.724998
-41.839500 -97.888000 93.341797
11.009400 -123.502998 128.459000
-41.001801 -87.518303 97.947403
4.577790 -109.898003 107.628998
-3.936780 -85.159897 126.689003
5.120640 -108.190002 106.918999
-16.291700 -104.170998 94.413597
-35.914700 -134.009003 101.442001
-6.189960 -81.188599 126.791000
23.966700 -114.848999 130.197006
1.834130 -134.550995 109.679001
-44.271599 -95.736198 96.330704
3.833680 -95.392899 126.305000
-3.412930 -100.019997 113.980003
-19.966000 -132.623993 89.809402
-24.854500 -113.244003 113.432999
13.425000 -102.007004 116.667000
-0.775232 -126.726997 111.081001
-20.180500 -139.233994 99.889297
-48.012501 -97.422897 82.878403
-8.193610 -100.897003 116.626999
-52.453300 -125.278999 101.438004
-26.925301 -113.696999 87.756203
-20.262100 -96.212502 110.089996
-17.811300 -95.541801 109.986000
-29.545300 -106.557999 117.324997
-31.321199 -135.302994 106.378998
-32.558102 -139.376007 107.313004
-44.500702 -126.103996 98.550201
-47.203098 -95.553902 93.123398
-3.420260 -138.352997 116.834999
-30.502899 -110.183998 112.662003
-0.876771 -100.706001 109.546997
-18.173599 -133.408997 110.823997
-29.292700 -113.383003 86.561096
-3.154740 -132.884003 117.037003
-31.947100 -111.737999 105.241997
-33.164799 -123.886002 84.357903
-29.879499 -94.482903 95.076599
-17.898899 -131.070007 89.098198
-8.721540 -136.145996 98.985397
-36.401299 -122.646004 97.075996
-28.881800 -128.192001 104.602997
-4.146830 -93.885101 112.544998
9.911250 -122.476997 126.764000
-5.834490 -138.865997 117.497002
-2.232250 -86.151100 126.110001
-26.871799 -115.820999 113.657997
-6.473050 -91.508499 110.440002
20.864700 -128.682007 129.837006
-5.054570 -132.212997 92.919701
-32.363201 -108.944000 79.656799
-28.926500 -104.139999 95.584198
-16.687901 -118.348999 117.277000
-27.454500 -99.406097 108.816002
-43.596500 -116.334000 100.952003
-12.772000 -111.114998 120.360001
-8.884020 -110.627998 92.750397
2.359540 -96.571098 123.694000
8.715960 -115.526001 128.110992
-15.454500 -109.191002 115.405998
-16.651600 -117.323997 118.278999
-47.629799 -118.764000 84.761101
-1.550460 -105.264999 114.716003
-6.186860 -91.402100 109.306999
-23.496401 -135.848007 104.646004
-40.155899 -111.101997 76.615097
4.471780 -108.735001 105.070999
-41.830601 -122.920998 102.820000
-23.492399 -110.592003 115.246002
-17.068501 -95.268097 106.569000
-40.080601 -95.576302 95.125999
-20.077700 -112.537003 116.908997
-21.682301 -99.567200 98.586998
-35.945000 -109.664001 92.335800
-31.749500 -103.878998 77.285400
-32.451199 -116.750000 100.807999
-25.785000 -99.883400 101.000000
-12.319600 -139.445007 111.911003
-28.992001 -95.079803 96.948997
-38.406399 -114.066002 80.752403
2.378240 -78.840500 127.598999
-32.269100 -102.695000 107.842003
-1.930640 -87.886002 133.526993
-36.630699 -106.316002 91.581200
-24.627899 -127.476997 108.105003
-12.043500 -128.936996 89.864098
-15.646400 -109.984001 117.599998
9.019880 -115.422997 128.753006
0.920084 -79.277702 119.417999
11.089300 -113.626999 127.330002
-5.110450 -135.158005 115.796997
-38.917599 -87.728500 82.819702
-8.591530 -140.078003 115.863998
9.188950 -99.176903 122.894997
-32.720901 -115.563004 91.864700
-32.240898 -139.169006 95.507896
-26.270399 -97.804298 97.713997
-31.382601 -104.998001 91.103500
-8.698420 -139.324005 115.698997
-31.796900 -107.593002 80.948097
-45.084301 -94.379501 99.017998
-22.934500 -110.649002 118.413002
-4.865790 -139.481995 114.191002
-28.746700 -134.951996 93.727699
-39.067699 -97.760902 93.163696
23.630400 -117.399002 131.197006
0.153458 -100.486000 116.025002
-3.643130 -87.758202 116.286003
-30.586100 -97.686897 101.431999
-0.061734 -126.542000 108.049004
-39.679798 -121.820999 98.414803
-25.525400 -140.570007 93.672203
-9.051510 -139.421005 114.771004
-31.202900 -139.897003 95.311096
-7.868530 -87.961304 119.638000
-14.000300 -136.927002 106.792999
-30.262600 -118.189003 86.456497
-20.576401 -110.940002 118.995003
-40.671200 -112.320000 88.412903
7.199920 -90.932198 106.917999
-43.061901 -130.723999 96.517899
6.966820 -118.862999 107.175003
-56.043900 -119.486000 91.619202
-37.085201 -89.506302 98.699997
-56.845699 -128.272003 91.240601
1.430330 -136.029007 111.136002
7.486410 -117.308998 122.878998
-41.620300 -83.295700 86.595802
-3.609100 -100.294998 112.722000
-26.213600 -100.585999 100.008003
-14.240600 -137.203003 104.806000
-17.140200 -111.561996 117.489998
0.982211 -139.944000 110.989998
-38.610298 -120.206001 96.851700
-2.726550 -87.546799 125.759003
-2.511120 -93.636398 111.473000
-49.685501 -121.579002 100.334999
-32.129299 -114.807999 91.994003
-3.786660 -100.403999 110.736000
-31.326099 -108.799004 114.487999
-31.066299 -91.907799 92.901497
-26.370899 -93.110703 98.137100
-2.618630 -92.889297 121.663002
-41.182899 -102.994003 92.940002
-35.305302 -97.724602 95.897598
-55.844601 -126.990997 98.261299
-30.184999 -97.124496 96.303596
-48.546902 -115.866997 91.318604
14.048200 -121.771004 130.322998
-11.155900 -112.232002 120.085999
9.284990 -120.347000 129.395004
-8.528910 -105.845001 117.222000
-34.477001 -140.841003 100.732002
-30.723600 -97.631104 84.085701
-47.257999 -116.225998 93.821999
-29.684299 -99.372398 96.437401
-30.696199 -98.401604 86.565399
-49.668800 -120.005997 96.672302
-35.915100 -134.048004 102.042999
-7.510220 -139.460007 115.249001
-35.027500 -105.649002 91.086197
11.107100 -123.912003 126.892998
-43.886700 -130.470001 96.339104
-37.693298 -114.480003 83.600700
-27.201900 -110.825996 116.564003
-52.466099 -120.975998 86.692299
5.799860 -115.702003 119.649002
-2.241290 -101.710999 112.516998
-40.345901 -132.669006 88.843803
-30.695999 -121.561996 100.713997
-31.063000 -117.530998 86.917297
-37.586102 -115.274002 82.983299
4.682600 -109.751999 112.643997
-34.633701 -135.703003 99.577103
-48.152802 -127.667000 98.615303
-28.723000 -124.671997 91.423302
4.817980 -118.515999 106.926003
-2.924110 -133.164001 99.183601
-12.260000 -136.714005 107.439003
-31.645000 -109.397003 108.072998
-31.011999 -104.021004 84.443604
9.896840 -122.383003 126.105003
-33.074600 -100.411003 77.529800
-28.251499 -117.926003 87.723000
2.837160 -93.724297 126.584999
-18.778700 -114.074997 118.414001
3.226600 -111.788002 114.082001
-29.336700 -127.484001 94.354797
-47.800400 -131.212997 97.807404
-4.979050 -90.881104 116.274002
-36.629799 -137.981003 103.181999
11.761500 -128.065994 118.563004
14.845800 -120.238998 132.994995
-28.875601 -110.972000 110.093002
21.042299 -111.230003 125.459000
-33.176899 -129.908997 105.654999
14.482100 -99.277603 120.275002
-4.263120 -127.303001 94.559998
-27.810600 -94.283401 100.962997
0.339709 -140.115005 104.987999
-30.918501 -126.557999 101.038002
14.522900 -111.445999 111.310997
-43.333599 -132.651001 94.688400
-31.195900 -113.189003 84.637703
-7.415690 -128.240997 87.388702
-34.337101 -109.943001 97.867302
-21.076599 -118.565002 87.542503
-7.742200 -140.199005 115.236000
-52.149101 -133.432007 100.578003
-31.365000 -97.750298 95.430496
20.968700 -130.761993 129.048004
-10.394700 -138.472000 115.925003
-48.943600 -128.292007 98.692802
-0.318384 -134.692001 114.412003
-30.205700 -99.712502 99.030197
-29.867800 -102.155998 103.032997
-8.917330 -100.939003 117.888000
-25.876101 -113.255997 114.051003
-10.277400 -134.809998 113.153999
-35.703602 -106.538002 92.075798
3.960160 -108.247002 113.613998
9.086030 -88.281097 130.440002
26.291000 -118.613998 125.999001
-22.461201 -106.827003 90.557098
-7.454740 -111.027000 119.588997
-19.925600 -122.066002 114.336998
-3.871830 -109.198997 117.862000
-7.901010 -95.019798 113.283997
-52.841999 -126.108002 101.209000
-25.818399 -113.991997 113.712997
-6.232250 -132.882996 90.328697
-40.021198 -85.347298 84.168404
-31.547600 -106.303001 86.379501
-3.948090 -130.011002 116.684998
-25.911501 -112.012001 113.827003
16.234301 -124.529999 129.654007
-7.366820 -124.732002 90.283302
-34.524601 -130.069000 94.584297
-47.324299 -132.897995 85.800797
21.905600 -114.225998 115.142998
1.376960 -105.024002 103.483002
-31.899300 -91.600998 91.060097
-48.153702 -135.001999 92.056099
-19.888800 -110.314003 116.392998
13.300400 -122.537003 128.608994
-36.117901 -139.212997 100.060997
16.908701 -127.558998 119.705002
13.801000 -124.805000 125.461998
10.383500 -118.623001 108.485001
-3.078720 -95.452400 112.928001
-6.128460 -88.387703 116.383003
-20.804800 -115.682999 119.166000
-44.954899 -115.320000 92.832199
-50.637901 -120.240997 100.834000
-7.039150 -136.820999 99.827301
-4.754510 -91.378998 110.567001
4.926310 -107.705002 112.623001
4.024730 -91.569099 129.938004
-18.842600 -134.744003 107.974998
-22.728201 -100.371002 121.958000
-19.157200 -112.853996 117.277000
0.559064 -139.285004 111.253998
-12.848500 -138.701004 108.358002
-48.924500 -121.413002 97.825203
-37.324200 -138.264999 102.278999
-39.311100 -126.941002 97.907204
-31.516800 -101.684998 108.275002
-47.301399 -120.542999 102.518997
-32.346699 -113.612000 83.370300
16.016001 -125.195999 114.480003
-25.325100 -139.205002 93.606400
-8.802070 -97.326797 111.061996
-55.865601 -125.028000 88.693604
-4.537770 -85.321800 125.747002
-21.309099 -111.860001 88.433899
-4.720930 -102.446999 100.252998
-11.166100 -140.313004 108.513000
-34.988400 -137.552994 106.682999
-5.543450 -113.809998 118.708000
-23.612200 -111.859001 115.115997
-34.398602 -114.584000 89.971397
-14.430900 -113.103996 120.634003
-18.269300 -112.180000 116.950996
10.583900 -109.516998 112.834000
2.109410 -108.272003 113.401001
13.206700 -123.833000 127.586998
9.407620 -87.090599 130.397003
-6.832070 -125.275002 93.257599
-7.073870 -95.793198 114.453003
-12.838100 -98.037903 116.698997
6.020180 -111.320999 106.886002
-37.400299 -138.412994 100.440002
-1.556100 -119.141998 115.399002
-24.751699 -97.138901 107.823997
-6.638070 -95.312698 114.021004
-5.989970 -94.415199 112.709999
-0.145586 -136.751007 115.084000
-17.973301 -114.547997 119.023003
-26.152201 -134.876007 105.367996
-21.813999 -114.624001 117.272003
-30.051100 -98.479897 99.215698
-16.952400 -97.432503 101.907997
-21.689600 -121.807999 113.914001
24.904600 -121.287003 131.485001
-38.716801 -130.261002 96.482002
2.636580 -119.186996 113.893997
-19.435400 -113.742996 117.790001
-45.979301 -124.670998 98.872498
22.753901 -129.722000 125.879997
-18.907200 -129.384995 112.401001
0.462308 -121.329002 112.542000
-30.351700 -103.595001 100.411003
-34.445099 -131.828995 105.487000
-10.400100 -125.389999 89.294197
-26.721300 -98.768402 100.218002
-45.661201 -107.776001 81.515999
-5.603190 -90.732101 116.685997
-1.967650 -134.447006 100.138000
-11.773100 -135.466003 111.651001
-41.733200 -115.725998 94.700401
-34.266701 -101.694000 92.818100
-45.060600 -106.904999 89.756699
-23.984200 -109.094002 89.257698
-15.751800 -118.846001 116.792000
-1.858180 -121.558998 98.733002
-29.599400 -119.449997 86.821999
1.198180 -91.731400 126.552002
-49.527901 -93.088303 91.233803
-1.138500 -90.309601 133.705994
18.950199 -112.699997 128.031998
-33.089699 -84.686203 94.516098
-38.475700 -125.666000 82.748100
-3.851600 -135.173996 114.852997
-41.844398 -134.164001 93.801300
-31.607401 -106.067001 86.578400
-34.529202 -117.087997 93.929100
-47.886299 -97.419601 80.188499
-3.705560 -82.804298 120.555000
-3.718270 -99.836998 113.223000
17.518200 -116.766998 129.302002
16.708401 -116.525002 130.218002
17.902901 -116.819000 129.574997
-48.377399 -117.129997 87.288902
-55.551498 -131.802994 92.967796
-42.001999 -124.254997 102.125999
-30.945299 -108.989998 81.865997
-20.057199 -136.764999 97.425697
-29.122999 -99.424896 96.761398
-25.786100 -117.347000 115.669998
-1.609430 -136.514999 114.935997
-27.475500 -131.298004 106.544998
2.504590 -93.755501 126.085999
-3.740790 -89.092796 129.470001
1.215440 -127.970001 105.663002
-20.899200 -136.410995 103.552002
-26.086800 -112.603996 110.927002
8.195840 -118.819000 126.953003
-2.382650 -77.873100 127.626999
-23.918699 -138.608994 93.469597
-1.901680 -76.393898 125.098000
-3.596470 -135.557999 114.898003
-33.146099 -105.014999 106.835999
-37.757599 -105.980003 92.121597
-45.544300 -106.732002 78.855202
-25.859699 -124.459000 90.244003
-7.025220 -94.264603 109.616997
-36.047401 -136.667999 102.994003
-34.209099 -96.898003 77.157303
-36.185001 -130.962997 87.609100
16.343500 -95.938499 113.238998
-32.757401 -120.239998 97.613503
-27.180401 -110.989998 107.703003
-4.944410 -126.305000 87.661697
14.229600 -121.870003 129.134003
-5.703710 -90.955200 110.948997
-57.271599 -122.146004 90.455902
-3.370380 -93.004402 119.639000
-28.591700 -117.528999 109.335999
-4.129900 -92.226303 111.672997
3.679310 -109.400002 103.210999
11.080000 -84.704102 127.084000
16.943701 -115.958000 109.964996
-13.899100 -125.007004 90.389702
-0.500947 -100.234001 115.080002
1.575540 -118.972000 113.154999
-13.979500 -101.688004 121.347000
-26.937799 -101.889000 100.046997
17.168501 -130.225998 127.205002
-29.261101 -125.671997 97.231300
-12.756100 -127.573997 89.536797
-14.209300 -110.234001 115.391998
-19.656200 -94.469398 106.314003
1.599220 -104.047997 115.851997
4.299990 -98.202698 105.337997
-7.173020 -91.163696 122.679001
-23.056700 -125.596001 108.862999
-1.523710 -100.779999 109.019997
-30.935600 -110.967003 105.102997
-24.818800 -135.177002 105.893997
-49.191898 -87.753601 91.328102
1.041440 -87.679497 134.998001
-2.095930 -103.648003 113.158997
-31.737400 -101.732002 109.165001
12.692300 -94.241600 124.818001
-7.298540 -87.043503 122.236000
16.348900 -117.726997 133.278000
-19.644899 -106.613998 122.265999
-22.532301 -99.748398 118.162003
-44.460602 -86.075897 95.682800
-24.342899 -120.717003 87.378403
14.111400 -114.726997 109.486000
0.517213 -130.121002 114.028999
-33.651798 -86.478699 98.158096
-8.953930 -136.548996 115.045998
-9.191860 -136.623001 99.491600
-36.649399 -100.026001 93.988899
-24.063999 -119.733002 87.179703
-44.173302 -84.499397 85.961998
-48.575298 -94.262497 86.620598
-4.815570 -131.173996 91.978203
-31.382799 -135.505005 93.746002
-34.629902 -93.332603 96.228500
-0.301905 -92.165100 124.635002
-40.506500 -87.250603 94.978600
-27.012199 -92.841301 97.564598
-12.407300 -105.119003 120.851997
-28.726900 -140.615005 104.001999
-48.702000 -120.708000 98.791603
3.147140 -122.135002 109.246002
-30.725500 -100.206001 98.220901
-6.659060 -123.302002 93.774696
-48.594200 -120.946999 98.528900
-32.269402 -102.274002 111.831001
-50.554699 -125.568001 100.723000
17.930000 -116.100998 131.873993
1.559400 -139.501007 110.667999
-19.048800 -103.283997 121.843002
-5.611900 -127.025002 87.933701
-31.056900 -104.250999 82.091301
-15.371100 -95.842598 109.353996
-6.265160 -135.132004 97.800003
16.451500 -125.778999 129.255005
-35.586399 -92.371002 96.923897
-33.629501 -100.139000 91.843803
-32.221600 -113.656998 104.791000
-36.493099 -129.457001 85.283600
9.984840 -110.405998 109.962997
-25.945601 -125.272003 107.483002
-26.167400 -134.903000 106.278999
-26.841499 -99.761398 112.837997
8.557270 -118.709000 124.986000
-33.069500 -115.664001 93.498100
-39.749599 -94.237999 95.443901
-29.544800 -122.539001 104.888000
-6.081210 -138.686005 98.968903
-21.635401 -138.526001 95.104500
16.860600 -128.585999 123.028999
-38.365501 -97.543999 94.022102
-29.176600 -113.995003 87.809700
-7.483370 -121.369003 94.472298
-35.061401 -89.944099 97.655098
-24.812099 -97.269600 107.525002
0.101506 -84.345802 132.848007
-27.234100 -101.150002 100.342003
-50.487801 -119.507004 96.774002
-27.346800 -132.770004 106.875000
-41.911800 -120.182999 103.246002
-5.857250 -135.347000 98.446404
-57.680000 -120.505997 99.109703
0.675561 -139.225006 106.220001
10.933800 -87.877800 128.979004
-14.590000 -134.121994 111.584999
-19.572300 -96.558502 109.760002
-27.139400 -140.886002 94.746498
0.500593 -139.300003 105.847000
-7.340110 -102.903999 117.442001
-34.006599 -139.684006 105.709000
0.821999 -129.210007 108.079002
-48.048302 -99.782097 81.901901
0.423215 -101.121002 106.116997
-31.210300 -99.857399 98.696899
-36.720299 -82.342400 91.271004
6.349630 -90.456802 107.123001
-17.379601 -128.634995 112.327003
-11.375300 -122.402000 115.291000
-2.166850 -138.371994 116.295998
7.999020 -99.002403 123.267998
-2.288230 -100.042999 112.903000
-1.076320 -77.157402 120.883003
-7.844030 -138.876999 100.100998
-32.139400 -90.908600 92.826302
-13.331500 -108.584000 114.945999
-47.696400 -130.623001 97.226700
-6.563900 -125.466003 88.464699
-6.657140 -94.641403 109.573997
-30.029100 -135.192993 106.808998
-50.146301 -134.606995 96.401299
-24.063999 -129.363007 108.733002
10.242500 -126.061996 114.566002
-21.529301 -111.748001 116.320999
-30.040701 -99.293900 95.741997
-31.587799 -100.286003 90.202400
-34.868599 -134.311005 105.274002
-8.872350 -98.995697 110.616997
-1.911810 -82.227501 128.761993
-10.799600 -138.391998 101.074997
-14.582700 -109.722000 115.809998
1.428280 -78.132301 121.037003
21.966801 -115.421997 130.278000
-4.588390 -132.313995 96.522102
-21.119301 -111.233002 118.418999
-34.458801 -109.942001 76.707603
19.481701 -109.862000 119.801003
19.669600 -117.321999 112.982002
-10.977000 -99.113602 115.727997
-30.822701 -101.723999 96.813202
-31.587999 -87.262901 91.648399
-26.412001 -111.931999 110.476997
-13.065800 -96.223801 108.167999
-9.115340 -120.623001 117.315002
-29.878201 -123.856003 98.950897
-30.662001 -130.190994 106.318001
-35.478298 -134.751007 103.482002
-9.525200 -121.303001 93.234200
17.134501 -94.003403 117.617996
-26.007999 -136.145996 108.499001
-12.100000 -136.376999 103.000000
-28.453199 -94.598900 98.263802
-20.017500 -106.283997 121.427002
-46.610699 -117.911003 99.744102
-36.607498 -137.160004 105.625000
-0.971326 -92.251701 122.218002
-34.903000 -138.410995 107.763000
-32.124500 -102.352997 108.122002
12.300500 -124.001999 124.776001
15.627300 -124.866997 129.574997
7.588490 -115.850998 121.255997
-5.781250 -108.185997 118.787003
-24.923500 -136.695999 108.138000
-12.896400 -133.559006 93.082100
-27.283400 -134.697006 106.817001
5.873520 -122.799004 112.776001
-3.011400 -134.166000 116.341003
-36.967701 -114.263000 89.743797
18.288401 -111.456001 124.789001
-4.502730 -139.444000 100.222000
-2.507040 -90.374496 125.074997
-19.411501 -124.476997 112.529999
-7.895550 -99.250999 112.781998
-10.901800 -135.244003 112.607002
-4.382660 -139.582993 110.623001
-38.482300 -113.015999 78.084099
-4.463100 -98.000900 112.899002
-5.313100 -128.729996 87.179703
-33.197701 -102.192001 91.880096
-25.587000 -113.238998 112.765999
-27.819401 -111.747002 112.039001
-26.675699 -110.199997 88.436600
9.069510 -93.131798 107.378998
14.590100 -125.762001 126.155998
-43.064400 -121.315002 103.403000
-27.955999 -136.557999 109.487000
-3.494730 -85.331299 117.883003
-6.193440 -103.457001 118.570000
-30.132999 -105.717003 89.244499
-21.850500 -101.473999 122.843002
1.115960 -76.312500 122.861000
-36.049599 -118.597000 85.945297
8.415980 -121.189003 124.790001
8.600220 -109.216003 113.041000
1.436240 -92.390404 131.173004
-31.019100 -124.719002 87.767403
-30.920500 -104.431000 97.279503
-33.195999 -116.070999 95.125702
-40.651600 -84.926399 85.419403
-34.693901 -95.647202 96.415497
-6.009110 -101.016998 114.555000
-38.063301 -91.757698 97.086601
-29.276501 -105.616997 119.012001
-4.580770 -128.787003 95.257004
-12.439500 -139.477005 105.925003
2.006590 -117.589996 114.105003
-23.711500 -136.001999 104.660004
-57.438801 -128.102997 97.630203
-29.868200 -125.049004 88.061203
-9.103740 -125.434998 115.209999
-25.746000 -138.733994 109.581001
4.239490 -120.712997 108.680000
17.984501 -113.445999 128.552002
-7.701480 -99.423798 110.865997
4.246630 -120.267998 113.438004
-24.861401 -113.708000 114.625000
-9.469400 -101.442001 118.439003
-13.065200 -138.231003 107.025002
-39.303799 -91.427597 98.177902
-20.243999 -97.871101 103.078003
-15.801200 -107.871002 121.517998
-32.099602 -104.932999 100.405998
-7.913520 -137.251999 99.302498
-32.163300 -128.272995 103.834000
-8.355130 -137.449005 116.542000
-22.184900 -96.652000 108.295998
-8.880050 -130.026001 114.023003
-9.592710 -135.906998 113.192001
-4.937400 -83.862000 119.438004
10.069100 -123.112000 123.388000
-21.009199 -129.406006 110.612999
-11.365700 -133.962006 112.843002
2.126960 -91.213203 132.869995
-23.833599 -109.878998 118.573997
-5.142250 -108.862999 118.542000
-36.999199 -137.811996 103.886002
13.696900 -102.691002 111.397003
-30.914000 -110.780998 83.020401
-20.763100 -135.867996 106.682999
-43.629601 -96.610397 95.068298
1.520300 -117.613998 114.962997
-34.861801 -109.188004 93.018600
-24.613800 -106.892998 121.717003
-23.132799 -100.135002 121.598999
-21.945000 -138.332993 94.787399
-0.689847 -82.853600 130.181000
-28.140400 -140.003998 94.302803
-5.303980 -95.859703 112.955002
-34.711498 -114.460999 81.815598
-11.492100 -131.442001 113.603996
-27.448999 -111.763000 111.261002
10.008800 -93.678200 107.489998
-34.558498 -87.414497 97.951698
-22.920799 -140.802002 95.716103
-43.011501 -132.889999 94.658302
-27.373699 -105.358002 93.852898
-27.832600 -140.087997 94.571503
-16.066000 -108.239998 115.188004
17.741301 -129.401001 130.078995
15.653500 -113.297997 110.669998
-17.326700 -132.237000 110.987999
-47.869202 -130.070007 98.682503
-30.877600 -124.638000 95.546501
-39.992599 -84.569901 93.353302
-13.636500 -108.943001 114.945999
-47.587399 -124.527000 83.095200
-0.121355 -112.237999 115.891998
-16.029200 -135.270004 108.436996
3.478140 -118.713997 103.468002
3.017510 -84.559502 132.412003
9.455030 -115.917000 107.457001
-30.277800 -105.039001 95.967796
-48.179001 -121.929001 97.941101
-0.923962 -80.595299 119.038002
-34.408401 -131.285995 99.190002
9.100910 -116.869003 124.557999
16.871799 -92.214600 121.678001
-24.019501 -114.598999 116.859001
-26.946199 -106.771004 90.678596
-24.398300 -113.637001 114.586998
-33.309799 -118.166000 96.896698
-16.421101 -108.994003 114.925003
-6.096350 -91.158096 119.477997
-48.326302 -119.457001 96.947304
-20.503700 -139.490997 96.352402
-39.697601 -128.757004 83.522003
-12.233200 -104.574997 119.794998
5.190840 -102.328003 119.813004
-35.607300 -134.843994 102.703003
-1.599160 -91.972298 128.227997
-0.008782 -127.648003 108.516998
25.997601 -123.305000 122.403000
-33.013302 -117.711998 87.875504
-25.787001 -136.403000 108.505997
9.450930 -99.875504 107.043999
22.763700 -112.445000 127.959999
-42.394001 -119.760002 103.240997
-15.266700 -107.430000 92.512703
-46.742599 -107.737000 83.565598
2.390610 -104.550003 115.914001
-29.732000 -103.945999 97.167702
-11.486400 -126.228996 90.126701
-6.618280 -138.613007 116.058998
-3.723890 -128.531998 91.802299
-40.589500 -127.427002 82.647102
-2.673390 -87.662201 125.564003
-23.676500 -139.636002 94.538696
-15.637700 -110.025002 118.107002
-33.123901 -131.798004 106.592003
-47.225399 -125.139999 98.392097
-22.908600 -126.265999 90.275902
-36.682098 -83.086998 92.568398
-1.861400 -103.365997 112.860001
-30.446199 -126.278999 97.214401
-45.022400 -123.064003 103.047997
-2.307050 -130.578003 116.705002
-0.301926 -80.590500 118.746002
-31.387100 -104.433998 114.214996
-37.727699 -130.315994 96.404800
-13.647600 -107.523003 116.054001
1.276990 -103.900002 104.350998
-10.060600 -137.638000 100.385002
-13.356300 -139.615005 109.945000
0.538820 -83.532799 133.054993
-32.393501 -103.478996 107.328003
-30.766500 -108.764999 82.373497
-36.247299 -83.453499 89.465698
-14.498500 -109.108002 114.714996
26.710600 -116.956001 126.347000
6.207380 -92.950897 128.035004
-45.566200 -93.433403 100.446999
-7.524430 -90.724602 110.417000
0.876970 -90.131699 133.188004
-54.868401 -123.283997 102.108002
-3.254620 -87.117599 125.380997
-30.284100 -100.015999 96.306602
-43.954700 -84.846603 92.385498
-19.447500 -112.389999 117.941002
-44.469501 -117.426003 85.865799
-8.446800 -128.802002 114.292000
-57.648800 -120.757004 94.145401
-41.373699 -96.596497 94.047501
-2.750270 -85.661301 132.102997
-28.914000 -101.639999 101.954002
-19.273600 -94.470901 109.750000
1.883160 -114.363998 115.757004
-12.528700 -98.263901 116.408997
-4.491470 -100.967003 109.255997
-30.167000 -103.804001 96.510803
-33.966400 -96.642899 96.376404
-7.585430 -105.260002 117.405998
-29.396099 -110.863998 107.906998
0.071746 -126.679001 109.860001
1.726990 -92.828003 124.668999
-32.681301 -115.929001 96.192398
9.619130 -119.176003 130.218994
-22.495199 -135.072998 107.074997
-36.274601 -124.197998 82.711601
-17.234301 -116.671997 119.864998
-1.894910 -97.885597 111.005997
-35.559898 -90.229797 97.649902
-7.444230 -99.401604 106.014000
20.888000 -115.495003 113.944000
-26.059601 -108.223000 89.620399
-13.017900 -136.925003 102.573997
-9.418690 -94.940002 111.781998
-1.468450 -98.744797 115.431999
-30.619699 -98.521797 97.577698
-24.480000 -139.518005 106.181000
-25.194901 -117.481003 116.077003
-29.580000 -114.718002 88.730904
-0.214859 -83.455498 115.897003
-15.637900 -108.200996 114.945999
16.698700 -98.275597 115.074997
-26.409300 -139.733002 93.686302
-21.832800 -126.561996 110.702003
-1.340710 -136.608994 101.408997
-2.041200 -102.177002 113.259003
-12.985600 -136.487000 109.737000
-1.359830 -91.668900 122.778000
24.748699 -124.189003 128.274002
11.981900 -127.434998 114.848999
-11.175200 -127.778999 90.311897
-29.351200 -139.729996 94.196198
-32.179501 -108.707001 112.843002
-28.150499 -108.778999 117.085999
-9.792180 -136.373001 115.453003
2.823340 -110.112999 114.137001
-26.350401 -135.488007 105.753998
-20.101000 -99.049500 100.816002
-26.983900 -101.008003 98.834602
-16.380301 -111.158997 115.848000
8.258300 -125.004997 112.945000
-47.774799 -97.307297 82.105301
-38.989601 -121.328003 98.663300
-1.160870 -90.967697 127.648003
-3.443560 -99.046898 112.834000
-56.573700 -130.102005 91.633102
-11.537100 -135.529999 110.221001
-3.502110 -136.041000 115.418999
-37.637402 -106.471001 74.415497
-35.811798 -136.462006 103.384003
5.442380 -93.760597 128.255997
1.416770 -135.526001 104.684998
-7.364960 -120.879997 115.938004
-32.162701 -106.472000 113.224998
-48.932899 -133.985992 95.624199
-24.018801 -121.668999 112.184998
-14.358100 -107.712997 114.916000
-2.445220 -138.960999 99.711998
-8.094090 -95.194702 114.141998
-20.642700 -134.110001 109.064003
-6.239740 -99.402298 110.996002
-41.493801 -111.028999 76.316101
-31.570400 -113.238998 82.193001
20.097601 -126.124001 130.675003
-12.154000 -114.013000 119.634003
-30.593800 -106.248001 92.578598
23.916500 -118.074997 117.375999
-24.366800 -130.044998 89.834602
12.113700 -84.576103 120.945000
-43.892601 -111.164001 81.378098
17.760099 -130.533997 125.755997
-29.120899 -93.996597 100.232002
-37.886002 -120.508003 83.688301
10.554100 -97.611397 122.914001
-23.125401 -139.876007 102.953003
-47.850399 -118.507004 96.492500
-44.648899 -131.694000 95.706902
9.561720 -86.733704 110.093002
-49.138302 -133.667007 94.531898
-12.981400 -112.072998 120.598999
-7.152560 -104.012001 118.209999
-57.257301 -131.914001 95.800400
-56.894699 -130.300003 96.830704
8.073520 -93.853104 126.728996
-30.156099 -125.802002 100.472000
-41.742699 -114.638000 91.609901
-11.650600 -98.945000 117.538002
-43.287102 -125.867996 100.367996
-4.020790 -100.370003 113.181000
-29.710199 -114.845001 88.881104
-48.968201 -131.917999 98.797897
-11.590300 -98.461197 116.477997
-28.250099 -95.531700 96.726799
-14.497900 -130.574997 112.584999
-11.158800 -104.052002 95.031197
8.451740 -118.863998 127.953003
-4.337750 -135.807999 99.740799
0.568601 -77.553497 126.353996
-48.810699 -90.228302 97.219803
-21.154400 -98.742302 116.906998
-5.939560 -96.493797 112.403999
-38.062302 -93.211700 93.796097
-2.655350 -101.061996 110.194000
-34.647800 -115.314003 82.192802
-0.463275 -125.585999 102.954002
20.142700 -109.514999 116.092003
0.790174 -109.109001 115.780998
-16.007000 -124.772003 113.460999
2.159650 -138.042999 109.897003
-7.782470 -91.743500 110.870003
10.468400 -82.933197 128.112000
-16.515400 -97.880798 100.306999
-34.244900 -136.354996 106.080002
-0.507482 -135.182007 113.071999
0.110016 -127.203003 110.129997
7.320450 -113.781998 106.978996
-23.696600 -117.696999 87.055298
-45.576599 -116.082001 92.024002
-52.230499 -133.906006 101.303001
-3.587590 -94.028503 117.772003
-4.787980 -135.082001 98.630600
-6.366870 -86.523300 123.130997
-3.205640 -111.237999 117.502998
21.997499 -121.750000 117.672997
5.552260 -94.056900 106.305000
-30.254700 -132.679993 93.086998
17.423901 -89.523201 116.747002
-41.319000 -125.910004 98.849899
-0.732883 -102.134003 105.513000
-36.153900 -139.052994 104.366997
-9.116460 -100.195000 113.586998
-17.345301 -110.615997 115.847000
-32.428299 -93.388000 83.406601
-8.318780 -99.157097 111.793999
-2.931080 -87.205101 125.487999
-18.178499 -124.944000 111.679001
19.291300 -111.063004 123.431000
-8.276430 -100.543999 113.578003
-2.253010 -139.136002 116.188004
-39.892399 -94.596901 98.593300
-41.800400 -96.430496 94.162300
0.161509 -139.175995 115.773003
-33.777100 -95.666801 96.999001
-11.556000 -139.352005 106.078003
-47.788700 -99.317200 88.845901
-9.970190 -105.483002 119.514999
-5.531900 -126.487000 113.500000
-37.070702 -139.828995 100.361000
-3.741410 -93.163597 117.386002
15.853400 -128.839005 120.516998
-35.647301 -134.029007 99.759804
-5.667160 -131.972000 91.742699
-0.797032 -92.623901 123.295998
-9.467000 -122.088997 116.357002
4.502800 -120.112000 107.223000
0.301598 -91.340202 133.136993
-19.858000 -125.828003 110.682999
-21.847799 -125.913002 110.488998
20.864700 -125.320999 129.854996
-8.901720 -121.764999 115.605003
-44.607498 -116.589996 96.025497
-12.954400 -110.482002 117.969002
14.528800 -119.011002 131.307007
-12.840500 -97.717201 118.121002
-43.697899 -127.761002 97.998703
-16.947100 -101.704002 121.596001
1.323270 -136.988007 109.512001
-35.419800 -135.151993 99.485497
-41.192501 -84.232399 86.319000
23.516701 -128.608002 127.989998
-8.316470 -95.325104 112.940002
-2.741430 -83.618698 118.338997
-22.918501 -98.407097 103.871002
9.824980 -81.598198 127.336998
-33.454399 -110.278000 103.318001
-19.752501 -94.497002 109.261002
-43.199699 -133.692993 89.629799
6.152020 -98.223900 105.345001
-14.207500 -117.653000 118.403999
15.910500 -96.221397 110.427002
-6.836290 -132.414001 91.831497
-6.204860 -130.149994 87.274399
8.411850 -111.455002 108.012001
-38.217800 -109.566002 91.482201
-41.762001 -112.190002 81.394203
16.395700 -125.473999 129.727005
10.826400 -115.537003 107.973999
-39.959400 -129.173996 97.989998
-1.525880 -83.213501 130.113007
-43.761398 -92.868698 100.021004
-43.332802 -95.831703 76.638496
-26.265200 -112.686996 110.791000
-25.220699 -140.102997 94.706001
-0.846803 -98.595802 108.214996
-15.792400 -99.081299 117.470001
-0.079068 -80.102997 119.089996
-10.663600 -134.134003 112.211998
4.225530 -110.360001 113.527000
-42.076599 -123.367996 101.773003
-31.525600 -115.067001 105.665001
-12.432100 -128.656006 89.705200
-4.422780 -79.415298 128.011002
-20.672701 -96.484398 110.760002
-22.641500 -109.334999 118.664001
-10.681800 -130.416000 88.208900
-20.838301 -111.108002 118.747002
-26.985500 -101.035004 99.320801
-43.914600 -122.940002 82.038200
14.742200 -121.026001 129.882996
-44.037201 -132.376007 93.769997
-10.309400 -118.728996 117.422997
-10.122300 -128.837997 88.379402
-28.582001 -139.104996 93.526497
-22.079700 -110.716003 114.865997
-24.131800 -110.400002 118.198997
23.190800 -129.173004 129.244003
-7.604950 -130.212006 87.815002
-32.502701 -86.173500 92.067001
-28.196800 -130.496994 106.456001
19.797701 -113.539001 128.925003
13.151000 -100.356003 108.775002
14.288000 -122.804001 129.479004
9.275010 -80.946503 127.148003
8.380840 -118.330002 125.630997
