38.147999 -114.496002 144.889008
22.827200 -130.298004 153.046005
68.360199 -125.727997 123.627998
63.245701 -131.425995 131.434006
56.724098 -115.362000 129.664001
35.546101 -102.488998 147.552002
32.382599 -129.522003 140.470993
37.461601 -130.998001 142.306000
46.235802 -130.673004 134.662994
59.748402 -113.033997 141.156998
25.532900 -108.443001 143.039001
32.934898 -129.576996 151.725998
32.689098 -116.703003 139.994995
45.851002 -132.830002 140.871002
24.481100 -139.108002 142.662994
26.784700 -108.602997 147.313995
39.003502 -117.946999 146.121002
61.722099 -115.972000 135.697998
36.267399 -126.546997 150.621994
57.699600 -127.421997 141.453995
25.408400 -115.132004 143.300003
22.516500 -124.619003 159.197998
34.013901 -127.309998 150.839996
69.414597 -126.268997 119.825996
53.430599 -117.343002 137.164001
35.424500 -136.451004 141.824997
44.769901 -122.549004 141.138000
54.514702 -137.416000 143.315994
56.316502 -135.223007 140.145996
26.462299 -128.343002 151.188004
62.196899 -113.987999 135.057999
22.938200 -124.984001 159.195999
23.776600 -122.578003 155.597000
61.195000 -131.203995 138.337997
58.479599 -116.597000 138.904999
25.875700 -114.035004 149.248993
24.270700 -123.461998 160.184006
58.323898 -127.837997 138.078003
35.975300 -130.595993 147.488007
61.720798 -132.929993 133.013000
53.412399 -125.733002 142.382004
56.507900 -134.110001 130.707993
41.411800 -122.856003 147.462997
28.081100 -104.546997 142.789993
23.051300 -115.181000 147.860001
46.079102 -129.820007 134.923996
55.270699 -118.366997 134.319000
54.802601 -137.862000 142.947006
62.382301 -115.650002 137.623001
37.948799 -115.890999 145.727997
53.558399 -129.382996 131.973007
43.587299 -121.751999 140.944000
60.498501 -136.216995 132.386993
68.155403 -125.991997 122.885002
49.826500 -125.088997 135.307007
48.256001 -124.768997 138.934006
63.883999 -137.785004 120.570999
55.202202 -138.145996 144.488007
67.364998 -128.692001 124.968002
27.000900 -123.478996 147.358002
56.945900 -126.433998 134.199997
59.580502 -115.462997 139.863007
32.647099 -115.522003 146.395004
41.365799 -131.104004 141.050003
41.409199 -123.291000 146.477997
28.871300 -121.744003 144.132004
47.889801 -134.985001 133.018997
40.371799 -119.294998 148.822998
30.367599 -125.556000 138.598999
30.522800 -130.162003 146.197006
45.812698 -131.873001 139.240997
36.635300 -101.827003 149.552002
49.690701 -136.492004 130.662994
57.082500 -137.315994 134.037994
29.860201 -120.421997 141.018997
59.998100 -131.216995 146.378006
60.051102 -136.425995 136.942993
35.644100 -111.970001 141.718002
46.300301 -126.666000 140.457993
24.934700 -126.846001 146.876007
34.852402 -131.671997 151.929993
58.632198 -112.905998 141.343002
55.689098 -116.274002 138.667999
23.607401 -136.990997 148.903000
19.575300 -129.576996 152.813004
55.798000 -125.413002 137.248993
48.476299 -126.120003 135.100006
50.091900 -131.507996 129.539001
39.122200 -120.372002 149.425003
62.635101 -115.417999 137.516998
56.882198 -113.015999 129.203003
57.021599 -110.082001 134.046005
37.711399 -131.459000 141.487000
56.079498 -112.572998 140.606003
37.002399 -114.889000 146.841995
53.230400 -136.578995 144.528000
31.989000 -121.706001 138.074997
58.476700 -113.953003 130.675995
40.531399 -133.988998 137.966995
59.498100 -132.912003 129.664001
69.068802 -125.910004 122.459000
67.071899 -118.700996 150.376999
38.041100 -131.029999 141.934006
54.694901 -126.329002 132.147003
49.329700 -122.619003 138.153000
62.676201 -113.362999 141.617996
22.187700 -114.288002 144.440994
42.733601 -132.972000 139.330002
65.137497 -125.648003 122.105003
48.646198 -128.132996 130.742996
30.097900 -129.287994 144.444000
35.122601 -101.532997 150.328995
36.127800 -128.617996 153.645996
26.625999 -106.583000 144.464005
61.580002 -130.363998 128.518005
38.566101 -116.852997 144.248993
23.255100 -138.789993 142.529007
21.302700 -131.470993 155.854996
44.717400 -125.217003 134.910004
19.372101 -139.996994 144.212006
57.792702 -134.679993 124.311996
60.765499 -115.657997 138.158005
15.670800 -126.976997 150.869995
64.068901 -136.613998 124.782997
60.688000 -136.968994 133.102997
33.549301 -106.415001 152.912994
53.098999 -131.001007 131.632004
30.921600 -114.867996 141.792999
69.064102 -117.397003 146.854996
59.119099 -136.539993 149.445007
51.421799 -112.031998 130.315002
54.848400 -121.991997 135.662003
30.405899 -129.473999 141.550003
48.354599 -126.624001 135.546997
33.155800 -118.460999 138.779007
61.581699 -134.970001 129.087006
31.255899 -120.294998 145.535004
25.974701 -128.979996 148.985992
45.327702 -122.987000 140.057999
57.169899 -116.824997 138.787994
27.931499 -129.542007 149.011002
56.105900 -124.413002 134.033997
27.205299 -117.167999 145.164993
35.366798 -120.737999 137.042999
54.691399 -130.330994 145.973999
26.335199 -123.432999 146.779007
32.219002 -122.690002 137.447998
45.719398 -118.103996 136.992996
37.152401 -132.108002 152.563995
64.774803 -130.434006 126.845001
65.747597 -129.632996 124.919998
49.288101 -133.315002 130.389008
55.812500 -117.990997 133.731003
67.282600 -118.150002 146.884995
31.013399 -136.141006 143.962006
47.698898 -135.664993 140.945999
53.469898 -137.723999 141.613007
54.497700 -111.904999 137.106003
45.247799 -132.516998 138.283005
28.287901 -104.431999 143.529999
56.238602 -127.888000 134.119003
34.904800 -119.162003 148.115997
34.122898 -114.883003 139.852997
57.162399 -123.693001 135.863998
51.661400 -129.925995 145.460007
19.133699 -130.399002 154.369003
34.695499 -130.403000 141.873993
45.762600 -121.051003 133.449005
25.570200 -123.897003 155.199997
22.924999 -111.537003 145.281998
33.470699 -131.417999 139.278000
23.045300 -122.184998 154.792999
64.891502 -115.873001 142.404999
34.999001 -133.914001 148.735992
59.021400 -135.084000 121.681000
35.938599 -132.302002 152.156006
62.716801 -115.443001 140.610001
26.104700 -139.026993 146.449005
49.462502 -115.460999 136.751999
57.140701 -123.830002 136.203003
33.961601 -110.793999 142.673004
38.223499 -114.710999 144.080002
24.463600 -122.267998 157.067001
35.864101 -130.259995 145.934998
40.569801 -130.296005 135.542007
53.391701 -130.022995 131.154007
35.722801 -110.531998 142.352997
18.224600 -128.979996 158.188004
34.893299 -134.800003 149.983994
57.083698 -134.796005 126.393997
29.081600 -135.501999 151.537003
31.655800 -131.102005 143.781006
43.615601 -125.942001 143.429993
62.906700 -131.944000 132.561996
23.554701 -135.729996 148.731995
54.855202 -136.106995 131.621994
41.163200 -122.794998 136.283005
30.750799 -107.893997 151.669998
32.037701 -102.700996 143.367004
30.711700 -132.294998 152.863007
51.517700 -133.356003 144.951996
23.536400 -130.156998 152.968002
38.069901 -126.613998 150.255005
46.585098 -126.536003 136.065994
34.434601 -110.428001 145.123001
34.427601 -122.797997 137.345001
25.785601 -123.232002 159.559006
26.336201 -116.709000 144.610992
25.532400 -126.598000 154.916000
27.688400 -111.510002 150.115997
29.110500 -110.664001 151.115997
25.177200 -108.614998 143.147003
61.892601 -113.286003 143.184006
20.996099 -123.237999 148.397995
28.953400 -123.517998 140.266006
67.143303 -117.961998 150.160004
23.831400 -129.261002 164.528000
34.952202 -135.550995 148.764999
50.694099 -131.600998 144.569000
40.979801 -119.276001 145.434006
50.991901 -116.149002 132.229996
36.118401 -125.144997 137.272003
24.322701 -138.785995 146.697006
55.614101 -138.373993 147.095001
64.368401 -136.001999 120.696999
36.552799 -110.170998 144.078995
29.789700 -135.526993 144.473999
25.489901 -115.592003 148.300995
52.163700 -136.160995 142.533005
26.607599 -123.625000 147.546997
63.886600 -116.556999 143.662994
50.209400 -119.129997 132.113998
27.048599 -136.104996 144.263000
16.548700 -129.026993 155.136993
51.876499 -115.241997 131.304993
46.155499 -134.574997 142.231995
27.737301 -123.055000 145.173996
27.258301 -126.038002 152.434998
36.974998 -129.113007 137.063995
34.101501 -119.285004 137.466003
61.729301 -129.906998 135.337997
41.744801 -130.192001 135.054993
52.990002 -125.527000 142.130005
44.206200 -127.086998 134.919998
66.478104 -117.936996 150.016006
33.379398 -114.027000 147.147003
33.514400 -125.370003 150.320007
45.036800 -128.998993 141.513000
49.291901 -125.266998 134.223007
63.972698 -125.786003 127.988998
23.409800 -122.630997 158.179001
34.651901 -114.887001 139.860001
37.368500 -135.380005 141.115005
67.861702 -128.649002 127.630997
23.918699 -127.222000 147.944000
60.480301 -116.232002 138.337997
36.992699 -115.404999 146.192001
41.002800 -120.114998 148.744003
63.363201 -128.623993 133.636993
20.638800 -121.192001 152.352997
37.079300 -128.270004 150.078995
56.616901 -117.246002 132.276993
29.408899 -120.172997 142.852997
54.683300 -125.467003 136.981003
29.329599 -124.033997 139.727005
34.170700 -112.301003 147.126007
26.639500 -124.786003 157.598007
43.138401 -131.356995 135.707001
44.316799 -123.821999 143.358002
48.104698 -115.972000 135.856995
60.104401 -134.514008 128.018005
55.785702 -111.802002 129.098007
62.330299 -112.869003 139.929001
27.073200 -136.753998 144.690002
51.663399 -115.813004 130.003998
51.310398 -135.001999 144.020004
37.923199 -121.889000 150.707993
36.325199 -113.113998 146.516006
38.826599 -116.292999 145.302994
51.958801 -113.570999 133.028000
56.892101 -136.602997 126.376999
67.270699 -128.436005 127.829002
51.959702 -133.660995 130.360001
44.497898 -122.388000 140.261993
63.042198 -114.662003 139.393005
60.767399 -138.065994 132.634995
30.638201 -129.843002 140.876999
35.434898 -132.195999 152.141006
45.913601 -119.267998 138.167007
61.861000 -131.110001 130.770996
58.706402 -137.048004 137.542999
30.683201 -130.147003 142.505997
48.786900 -125.914001 134.518005
37.827400 -124.807999 137.046005
22.658100 -113.914001 147.050003
35.405701 -131.147995 153.604996
53.086102 -113.329002 133.843002
59.408501 -134.574005 120.780998
64.981697 -118.172997 149.638000
37.458302 -131.434006 136.453003
36.897301 -127.883003 149.839996
57.790100 -112.088997 130.925003
49.906200 -135.054001 134.283005
31.071199 -116.095001 143.085007
37.927700 -129.100006 149.425995
60.727100 -137.994995 132.016998
48.002701 -126.768997 134.595001
51.596001 -128.746002 130.578995
28.160900 -131.688004 150.268005
60.484001 -115.442001 140.011993
51.044701 -137.322006 132.610001
68.061699 -116.971001 148.207001
28.458401 -132.705002 144.772003
53.391701 -113.038002 128.136993
43.628201 -121.404999 139.796997
18.913099 -121.514999 149.806000
54.734402 -137.455994 131.925003
27.151699 -115.323997 148.307999
48.680302 -136.138000 139.985001
37.771500 -122.653999 150.701996
33.476002 -136.537003 151.875000
35.153000 -114.723000 140.509995
33.344299 -131.742004 142.852005
28.336500 -129.042007 144.878006
35.353100 -132.690994 137.459000
57.067699 -134.472000 130.281006
55.177502 -113.357002 141.160004
53.427700 -136.768005 133.682999
58.867401 -138.126007 149.061996
55.937500 -111.049004 130.141998
36.400101 -114.458000 146.664993
38.359001 -128.304993 148.442993
53.951801 -137.628998 142.925003
24.675800 -126.712997 147.110001
63.933399 -115.842003 142.001007
22.203501 -130.059998 155.121994
37.770901 -133.076996 142.251999
34.938202 -112.184998 146.869995
48.020500 -134.962006 139.085999
45.940800 -130.501007 142.011993
25.500500 -127.969002 155.975998
26.818001 -125.144997 144.020004
41.518600 -120.596001 145.117004
38.187599 -116.110001 145.488998
35.224499 -131.681000 142.542007
34.221500 -131.662994 138.826996
59.071400 -130.388000 144.729996
25.620300 -136.585999 143.572998
58.003399 -131.171997 148.384003
39.599499 -117.019997 142.613998
63.964401 -115.513000 140.404007
37.707100 -118.153000 147.934998
55.841099 -118.527000 135.477997
31.389799 -109.956001 151.003998
59.824100 -127.322998 127.917000
55.037800 -131.837006 130.904007
29.344900 -122.435997 138.975998
30.214300 -128.048996 139.813004
57.208599 -135.082993 141.166000
36.157700 -111.710999 146.160995
31.013700 -104.831001 142.449997
38.466801 -121.975998 136.990997
40.897499 -133.709000 137.649994
28.420500 -128.987000 148.914001
58.550598 -135.022003 125.545998
42.070000 -123.903999 146.442001
59.424000 -130.667007 140.171997
48.965500 -126.749001 142.376007
22.776300 -137.292999 141.748993
32.870300 -132.481003 140.268997
51.702499 -115.709000 129.597000
63.477798 -126.385002 128.337997
22.237700 -113.013000 143.753006
50.621201 -116.440002 132.897995
57.049801 -136.054001 138.542007
62.762299 -139.300995 128.307999
55.674301 -123.819000 136.686996
22.589600 -125.392998 147.472000
19.870199 -138.761993 145.768005
38.222801 -130.496002 141.893997
61.503101 -133.841003 138.582993
60.311501 -115.308998 141.417007
57.635700 -137.669006 149.804993
36.537800 -126.987999 136.908997
32.627899 -133.238998 139.867004
35.169701 -133.076996 144.250000
27.169001 -137.791000 148.514008
55.112900 -112.073997 138.783005
42.596802 -123.367996 145.026993
59.243999 -134.893997 123.610001
50.826199 -137.669006 131.716995
32.407398 -129.421005 139.546997
37.472301 -131.070007 137.158005
34.760201 -133.785004 145.903000
46.210999 -132.796997 135.179993
69.399498 -118.422997 147.869003
57.643700 -135.677994 124.664001
30.682199 -107.612000 142.490997
29.351400 -131.785995 145.768997
54.352901 -131.863998 130.690002
57.209499 -128.582001 144.371002
18.350000 -127.759003 156.167007
54.441898 -115.776001 138.910004
50.397400 -112.499001 130.621002
25.818899 -106.530998 144.156998
61.251801 -111.760002 135.675003
28.630301 -124.328003 141.319000
40.610901 -133.190994 136.807007
46.320000 -134.552994 141.451996
59.347198 -127.758003 136.746994
58.695702 -137.731995 143.684006
33.540199 -132.494995 152.938004
47.363499 -130.341995 143.561005
46.232498 -122.501999 133.626007
54.591000 -109.962997 131.279999
37.683899 -131.011993 150.529007
29.548500 -102.535004 144.104004
59.924702 -134.108994 143.776001
38.492100 -115.802002 145.929001
37.458199 -131.279007 151.731003
49.262600 -129.427002 130.167999
28.650101 -112.110001 141.539993
44.095001 -122.591003 134.850006
46.337399 -119.581001 138.677002
33.783298 -113.568001 140.938004
54.234798 -122.602997 134.084000
59.350601 -136.703995 136.606995
54.467499 -117.608002 136.966995
56.198799 -137.735992 131.468002
63.611198 -114.152000 139.179001
62.723900 -115.594002 136.636002
25.151501 -135.563995 143.141998
32.096600 -109.984001 142.923996
26.335199 -116.746002 145.919998
62.173901 -113.280998 135.098999
27.719999 -136.742996 144.533005
55.251801 -117.627998 136.822006
27.654699 -128.697006 162.660004
61.083401 -132.800003 130.977005
42.972000 -127.896004 143.612000
51.497002 -129.182999 146.255005
56.938301 -136.378998 138.936996
40.446899 -119.154999 140.339005
18.841600 -123.832001 147.923996
54.612202 -129.024002 145.063004
57.581100 -137.315002 135.938004
23.919300 -128.688004 150.697998
34.366299 -131.404999 139.192993
51.869701 -128.548996 130.177002
55.188301 -136.839005 131.731003
32.971500 -122.069000 136.983994
24.852400 -129.615005 157.731003
30.783300 -130.326004 143.233994
34.050301 -133.744995 152.477005
24.042200 -122.183998 157.658005
59.905998 -131.395996 147.358002
59.007801 -111.872002 133.356995
32.147099 -109.862000 151.649994
52.295898 -132.559998 144.604004
53.742199 -137.395996 146.897003
58.578400 -112.886002 131.347000
52.113602 -114.221001 132.623001
24.946899 -135.326996 148.992004
35.502300 -116.486000 139.417007
51.927898 -115.138000 131.682999
57.829102 -113.003998 130.223007
61.908199 -131.453995 135.257996
47.132801 -134.751999 132.391998
64.642899 -135.927002 121.521004
30.123199 -137.210007 151.690994
59.186401 -115.495003 140.054993
68.857002 -126.412003 122.216003
35.191200 -131.554001 137.996994
48.008900 -127.672997 134.389008
22.533800 -123.203003 148.783997
37.432899 -123.221001 137.227997
26.609200 -111.792000 150.044006
61.361500 -112.154999 136.212006
63.613701 -114.430000 144.688995
32.904202 -109.097000 144.059006
59.410900 -130.128006 144.294006
30.869200 -135.940002 143.830002
20.505501 -137.684998 146.742996
32.678799 -132.671997 140.686996
60.421101 -134.822006 125.578003
63.652699 -138.639999 122.459000
42.316002 -132.843994 137.167007
16.255699 -128.423996 152.798996
49.692600 -130.820007 129.988998
28.011700 -104.814003 144.337006
59.629002 -133.770004 141.942993
27.782400 -110.883003 150.003006
31.580799 -112.761002 148.934998
33.958099 -103.355003 144.473007
27.045000 -112.862000 149.751999
65.644096 -118.841003 147.255005
22.636600 -139.371994 142.742996
21.758200 -113.364998 143.597000
29.788099 -105.948997 148.330994
20.608101 -120.930000 151.065994
33.081699 -102.320999 144.242004
55.947300 -126.325996 137.867996
50.031700 -133.052994 129.931000
48.622601 -134.725006 130.660995
60.158001 -134.720993 126.247002
24.958000 -129.205994 148.669006
63.875000 -138.307999 126.877998
64.846397 -126.615997 121.892998
33.089298 -136.638000 151.130997
24.600100 -123.490997 148.572998
50.928699 -131.589005 144.085007
30.815201 -127.754997 139.210999
51.410599 -114.557999 136.348999
24.547001 -109.528999 144.606995
21.988199 -126.463997 147.399994
63.361198 -138.964996 124.091003
45.669800 -118.945999 137.397995
65.478401 -131.192001 132.401993
64.622299 -125.625999 127.238998
28.211901 -117.110001 145.112000
25.659599 -138.302002 146.875000
66.076698 -126.428001 120.481003
37.664101 -122.535004 150.171005
32.070400 -101.668999 147.009003
33.977798 -109.193001 147.048004
59.658699 -135.781006 149.464005
41.861500 -125.071999 134.595993
17.108299 -129.871994 156.531006
51.692299 -134.727997 144.628998
47.685501 -132.516998 142.766006
54.304501 -125.714996 132.311005
64.476799 -126.829002 121.650002
55.035301 -110.624001 133.434006
53.956600 -124.973999 138.225998
46.914398 -116.880997 136.022995
17.740801 -129.371002 156.852997
57.244400 -113.328003 141.710007
51.177700 -114.353996 132.119003
53.820202 -111.902000 134.065994
60.686001 -111.803001 138.597000
23.461500 -131.490005 163.158005
62.871399 -116.147003 147.214005
18.476900 -126.575996 148.709000
30.204500 -128.406006 149.231995
35.063801 -132.507004 147.416000
28.633900 -107.136002 141.869003
48.377998 -127.025002 132.367004
58.164001 -112.482002 141.242004
48.898201 -132.371994 143.800995
59.255699 -115.666000 136.867996
32.158199 -131.600998 143.550003
57.998798 -111.137001 134.692993
18.232901 -124.977997 153.996994
41.783401 -133.108994 140.242996
34.650002 -101.924004 150.610992
41.132999 -118.258003 143.304993
47.595798 -132.018005 143.330994
61.195999 -116.112999 142.591995
49.558201 -135.315994 144.580994
60.339401 -112.253998 138.570999
63.813301 -137.550003 116.210999
37.172199 -111.320999 144.166000
32.712002 -117.405998 139.518997
67.301300 -130.421997 129.345993
55.477100 -138.223007 143.373993
64.816002 -135.977997 119.321999
60.596901 -126.976997 128.417999
60.233799 -127.304001 135.460007
34.853699 -113.348000 147.102997
24.148399 -139.889008 143.401001
66.179604 -136.235992 116.585999
39.646599 -131.509003 141.412994
57.676701 -110.757004 135.737000
58.098598 -128.524994 140.925995
28.728300 -133.242004 145.238998
15.955900 -126.311996 152.389999
54.396900 -115.404999 139.070007
26.277201 -126.171997 157.653000
59.977798 -116.383003 135.307999
27.430799 -126.630997 160.328995
65.569801 -118.033997 146.660004
32.398499 -135.166000 139.802002
54.559200 -133.018005 130.464996
27.840200 -105.327003 143.097000
40.168800 -122.938004 150.151993
27.009899 -129.929001 163.061996
42.825901 -131.992004 139.585007
24.260799 -133.949005 146.371994
53.161999 -129.518005 131.653000
61.697102 -132.438995 132.932999
30.226801 -113.717003 150.171997
34.285599 -130.619995 153.867996
55.782902 -112.436996 128.682999
54.714600 -132.192001 130.518997
58.751999 -117.439003 134.832993
26.095100 -129.841995 165.300995
42.710499 -120.831001 142.447998
59.957699 -136.255005 132.934998
28.333700 -134.794006 144.421997
53.043900 -136.145996 131.800995
22.619801 -137.074997 142.266998
26.063299 -116.023003 145.121002
53.142899 -119.974998 136.253006
30.555599 -109.818001 151.686996
29.394199 -128.654007 149.184998
66.399597 -118.054001 150.574997
56.343399 -127.523003 134.298004
22.066500 -139.287994 148.173996
58.257500 -127.208000 136.792007
36.052898 -106.412003 146.417999
20.667101 -128.313004 148.979996
44.773201 -121.558998 134.011993
35.482899 -120.990997 149.929001
36.802200 -124.087997 150.237000
49.453999 -122.226997 135.475006
39.839100 -118.268997 145.225006
16.597300 -127.989998 153.514999
51.575901 -124.406998 135.440002
27.722200 -123.637001 144.087006
36.403500 -110.873001 145.024002
52.287201 -120.164001 135.121994
38.262100 -126.375999 136.380997
48.957199 -119.987999 132.479996
40.506901 -123.800003 148.095001
61.277802 -115.565002 144.856995
61.011700 -136.556000 146.160004
44.104900 -119.829002 138.158997
37.827000 -122.241997 137.334000
46.197201 -132.378006 139.761993
25.598900 -123.773003 160.056000
58.185699 -137.401993 134.951004
63.674599 -116.474998 142.138000
60.997200 -127.642998 135.824005
50.092300 -134.220993 145.050995
40.046600 -131.052002 142.970001
51.971802 -120.913002 136.455994
56.914501 -135.847000 140.856995
46.084702 -123.986000 140.542999
37.910599 -130.110992 145.623993
30.531601 -116.569000 143.567993
34.507500 -134.796997 138.257996
42.057701 -129.240997 135.184998
38.103600 -105.319000 149.796997
34.280602 -109.792999 147.557007
53.625099 -115.258003 129.350006
48.553299 -119.822998 138.774002
59.229099 -115.986000 140.212006
31.953300 -126.874001 137.720993
54.412998 -137.722000 144.313995
50.358799 -136.154007 139.356003
61.795700 -133.201004 147.884995
25.534599 -123.449997 155.947006
26.037300 -126.662003 165.220993
23.793800 -137.033997 141.975998
44.897499 -127.916000 142.171997
39.457001 -126.658997 135.733994
37.992401 -115.806999 145.356995
29.343399 -120.227997 142.360992
33.844601 -107.321999 152.289001
32.960300 -124.124001 150.018997
57.853199 -135.253006 123.716003
35.725101 -115.605003 146.876007
58.641800 -128.382996 132.197006
37.141602 -131.854996 150.274002
59.555801 -134.348999 142.970993
22.664900 -122.852997 157.445007
38.360100 -121.502998 137.623993
66.808502 -115.863998 146.492004
27.033600 -126.466003 161.029007
61.964401 -113.321999 141.953995
60.432201 -136.337006 120.176003
38.211201 -116.315002 146.156006
41.185101 -132.460999 141.186005
28.069300 -108.460999 142.376999
61.460201 -135.567993 117.487999
63.482399 -117.028000 143.725998
40.328800 -119.640999 148.438995
27.670900 -125.203003 143.709000
25.491400 -123.274002 160.529999
35.036900 -115.967003 146.938004
25.077200 -123.521004 149.266006
36.648602 -117.350998 138.979004
65.696404 -135.863007 114.411003
64.882500 -130.061996 133.082993
25.229099 -133.167007 146.755997
58.729900 -132.248993 149.891006
68.120102 -128.300995 126.386002
23.625099 -128.841003 150.977005
35.901600 -126.649002 137.039001
60.754902 -133.320007 140.423996
32.567200 -136.503006 151.630005
60.647900 -127.316002 132.225006
37.208801 -115.200996 145.921005
52.214298 -137.666000 141.100998
59.662498 -127.610001 136.337006
23.774099 -136.039001 148.386002
56.817101 -116.372002 141.035004
63.444099 -138.968002 126.778999
61.509499 -134.921005 123.996002
59.609299 -134.115005 127.364998
37.863499 -128.291000 148.360001
38.636799 -119.741997 137.804993
37.181000 -129.796005 153.367996
54.997299 -121.926003 134.981995
46.343899 -133.761002 136.238998
35.640301 -124.944000 137.233994
63.966801 -136.973007 115.846001
66.455597 -125.703003 126.475998
58.610199 -130.514999 148.024002
56.647499 -129.408005 132.082993
62.803200 -113.210999 143.453003
25.959801 -113.150002 142.518005
58.544498 -137.365005 134.942001
58.768200 -129.972000 146.598999
56.817600 -113.670998 142.304993
30.869200 -107.074997 151.072006
60.413200 -113.864998 143.319000
38.568298 -122.864998 150.653000
58.989498 -115.585999 140.910004
42.646999 -131.136993 141.556000
36.635201 -124.977997 136.807999
35.431198 -135.653000 138.882996
67.851898 -128.179001 124.934998
60.809799 -135.028000 134.154007
19.859900 -130.091995 160.384995
62.679600 -130.089996 134.916000
21.390699 -121.119003 153.714996
27.500401 -108.510002 148.278000
61.204498 -116.274002 137.134995
48.845600 -129.356995 130.332001
55.224701 -134.233994 130.332001
57.472000 -137.235992 133.764999
38.420799 -128.440994 148.070007
51.901901 -125.010002 132.089005
27.355200 -125.745003 160.522003
27.607000 -113.825996 149.940002
64.651802 -125.877998 121.084999
36.909302 -129.664993 138.179001
66.549400 -127.606003 121.718002
37.510799 -131.233002 150.837997
20.152000 -124.916000 147.063995
60.903702 -138.615005 132.022995
49.992199 -127.335999 130.098007
60.892799 -135.244003 131.940994
64.042099 -138.522995 123.005997
50.565300 -135.026993 135.848007
68.249702 -127.477997 125.930000
55.091301 -136.917007 135.779999
68.601601 -127.039001 124.848000
55.641201 -111.192001 135.320007
61.447399 -133.837997 144.751999
58.568298 -127.431000 134.578003
27.407200 -134.938995 151.268005
32.009399 -117.953003 139.580994
61.151100 -112.495003 135.182999
67.864403 -116.625999 146.432007
60.492699 -138.897995 129.044998
25.079700 -126.707001 164.643005
62.108299 -114.926003 139.059998
29.573299 -124.921997 151.311005
62.629601 -126.919998 123.725998
47.797798 -135.589005 142.453003
48.260201 -118.345001 133.173004
62.166000 -115.928001 146.231995
31.287300 -116.259003 142.815994
34.756599 -107.912003 151.378998
66.666801 -130.962997 131.453003
53.179100 -118.359001 136.917007
54.684200 -130.785995 130.585007
61.943100 -136.847000 131.737000
30.571301 -129.524002 144.923996
57.546398 -116.296997 138.815002
26.018999 -125.613998 153.729004
58.134399 -112.806999 140.830002
16.690300 -124.545998 150.645996
47.270901 -129.992004 142.910004
50.147400 -126.752998 145.028000
47.593800 -135.350006 139.257004
68.577599 -117.945000 149.602997
21.336300 -131.050003 162.188004
42.569199 -122.091003 135.591995
35.673401 -107.847000 147.298996
35.495998 -132.973999 147.546005
54.965199 -114.875000 128.492996
44.419701 -132.052002 136.968002
54.261501 -122.963997 133.897995
61.740601 -132.408997 132.011002
33.361000 -136.171997 141.720001
41.649601 -120.028999 140.666000
24.966801 -110.685997 142.695999
19.198400 -121.795998 149.072998
52.815399 -136.266006 143.371994
50.458801 -122.176003 136.863998
32.429199 -131.210007 144.156006
19.299400 -131.311005 158.839005
53.326801 -125.586998 140.815002
66.907600 -117.391998 145.636002
66.640099 -125.671997 119.408997
51.997799 -117.969002 131.761993
34.494999 -108.156998 145.298004
61.068901 -134.520004 122.092003
35.434101 -117.274002 137.666000
40.646900 -118.724998 140.138000
48.623402 -134.744995 136.102005
48.305302 -126.346001 134.916000
25.471500 -124.746002 146.035004
60.708302 -136.132004 145.112000
45.773800 -133.774002 139.455002
50.655998 -135.201004 129.697006
45.446800 -121.333000 133.621002
33.738800 -131.296997 139.026993
32.623699 -110.746002 148.884995
45.064800 -131.167007 136.449005
33.944901 -114.018997 147.634003
61.443501 -135.442001 130.882004
30.444099 -138.582993 148.774002
28.728701 -110.457001 141.507996
27.408001 -105.986000 143.003998
51.754299 -136.972000 139.128998
39.436600 -133.688995 137.705994
22.402700 -114.930000 146.959000
57.064201 -135.893005 126.371002
36.595901 -134.028000 137.455002
49.664200 -122.367996 137.947998
54.384102 -128.854004 132.557999
51.969501 -129.839996 130.149994
34.776501 -135.667999 143.274994
20.426300 -121.751999 152.197006
34.970699 -114.334999 147.541000
26.491800 -128.311005 151.964005
37.517300 -124.777000 137.192993
61.628300 -134.723007 118.239998
54.933701 -125.902000 141.376999
25.797899 -128.179993 153.199997
33.480202 -110.139999 142.919006
27.003700 -129.703995 161.712997
48.183998 -135.712997 143.600006
25.455500 -123.803001 153.535004
23.830200 -130.011002 152.705002
28.811001 -113.745003 142.608994
31.490299 -131.977005 153.100998
52.002201 -129.188004 146.343994
62.964001 -114.028000 138.037003
26.145800 -111.772003 141.811996
23.251200 -122.338997 155.169998
24.671101 -113.519997 148.334000
59.315899 -138.664993 148.110992
55.521198 -126.124001 133.139008
62.743801 -115.035004 146.341003
47.709400 -134.871994 139.388000
31.340500 -117.059998 143.298004
51.209702 -114.405998 135.546005
63.980701 -126.338997 128.503006
23.392500 -109.807999 144.048996
34.433498 -106.292999 152.514008
53.486599 -125.137001 137.444000
50.881199 -114.360001 130.733002
43.630199 -128.580994 134.492996
49.274101 -127.811996 130.050995
24.040800 -122.995003 159.393997
22.442101 -131.796005 159.078003
37.833500 -105.384003 151.029999
25.847500 -106.625000 143.100006
31.023100 -124.059998 149.561005
26.245100 -133.774994 149.003006
27.877800 -111.013000 141.873001
45.223000 -132.115997 139.192001
43.144600 -120.558998 140.572998
57.225700 -125.148003 135.776001
19.877100 -125.660004 147.673996
31.402599 -122.507004 148.380997
46.647900 -133.134995 135.820007
57.344101 -132.929993 130.964996
43.303600 -123.388000 143.981003
21.780001 -121.085999 153.735001
56.650398 -125.690002 134.406998
53.589600 -111.725998 133.462997
55.002899 -138.822006 146.302994
52.747501 -122.026001 135.585007
51.759300 -115.383003 136.692001
49.205700 -126.181000 134.483994
58.832699 -138.770004 146.429001
52.480900 -113.170998 135.531006
42.973000 -130.897995 141.766998
57.869598 -135.501999 142.557999
48.697601 -118.633003 132.826004
26.520300 -137.408005 147.636993
16.767900 -125.295998 148.414001
51.005001 -118.719002 137.988998
48.440601 -131.363998 130.606003
63.682598 -137.292999 125.341003
21.940399 -123.473000 148.244003
20.946899 -121.563004 149.608002
47.714600 -134.850998 133.796005
51.287498 -111.586998 129.904999
33.949799 -104.968002 152.507004
35.991199 -124.448997 151.246002
38.899799 -126.430000 147.944000
62.588799 -139.423996 126.973000
24.426201 -113.330002 147.899002
26.919399 -129.134995 160.244995
52.092499 -113.445999 132.369995
17.637501 -127.769997 149.669998
33.929401 -120.717003 149.117004
37.145699 -105.058998 148.218994
19.247801 -120.987000 149.384995
38.632599 -129.373001 148.738998
28.827499 -129.242996 145.199997
34.683998 -135.235992 138.550003
61.409100 -135.923996 130.306000
49.653301 -127.760002 144.029999
60.075401 -136.348999 134.003006
23.315100 -122.915001 149.684006
38.376202 -116.704002 140.770004
39.539799 -129.419006 145.761993
22.069500 -129.528000 154.149002
54.967201 -117.371002 137.253006
34.373501 -130.406998 139.524994
57.904499 -116.676003 136.141998
32.626301 -126.716003 150.108002
58.899601 -112.411003 139.563004
33.891899 -129.641998 152.744995
36.793499 -125.011002 150.192993
37.878101 -113.623001 142.516998
26.150000 -114.396004 142.197998
53.805698 -131.320999 147.005005
63.874100 -138.681000 124.406998
27.572901 -115.471001 148.261002
60.334599 -132.317993 140.951996
51.314201 -128.195007 130.514008
56.518101 -111.060997 135.565002
21.701900 -135.218994 144.509995
52.537800 -135.770996 137.399002
30.514000 -106.771004 149.330994
26.756701 -116.432999 145.397003
48.678101 -134.514008 133.959000
44.395199 -130.727005 141.039993
33.269699 -122.904999 136.608994
27.240999 -110.834000 150.195007
40.062099 -132.541000 141.720001
49.903301 -133.841995 144.565994
52.129200 -136.832001 133.102005
34.316502 -110.655998 142.832993
61.205200 -113.014000 134.807999
50.956100 -120.969002 136.860001
38.551300 -124.695999 149.557999
34.813099 -127.742996 152.453003
42.479301 -126.626999 145.233002
31.844400 -136.442993 142.584000
25.002300 -123.093002 152.623001
52.068298 -127.735001 130.832993
32.155998 -126.351997 149.266006
42.712399 -122.168999 136.244003
35.360001 -133.223007 136.947006
28.519600 -126.304001 151.990005
64.267601 -137.235001 116.662003
39.773300 -131.944000 141.391006
65.181099 -135.610992 113.609001
66.919296 -129.457993 129.667999
41.694000 -119.632004 145.082993
51.968800 -135.526001 136.587006
24.351000 -128.395996 154.822998
17.907400 -122.054001 148.070007
25.865601 -126.556999 145.748993
55.589802 -128.184006 132.873001
54.005501 -136.658997 139.171997
21.624901 -139.559006 147.046005
38.168800 -135.192993 138.660995
60.599201 -129.197006 136.860001
60.721699 -139.455002 128.886002
32.549198 -130.444000 141.113007
63.660099 -130.977997 134.514008
50.666599 -125.042999 136.190002
32.996498 -104.746002 142.600998
58.339298 -116.806999 131.451996
30.834000 -101.765999 144.725006
30.742500 -130.847000 146.162994
23.461599 -134.544006 146.766006
39.044800 -129.936996 144.615005
55.373798 -129.061996 144.949005
48.622299 -135.477005 139.709000
31.054800 -101.834000 144.302002
59.428501 -112.035004 132.542007
34.893600 -131.867996 153.128006
46.987000 -134.003998 135.169998
55.157700 -136.384003 139.365997
37.589199 -129.947006 148.169006
50.043598 -114.851997 135.459000
68.345703 -117.230003 148.421005
28.572201 -104.968002 142.938004
61.897400 -139.539993 127.356003
61.240200 -112.334000 135.487000
36.456799 -127.481003 150.289993
30.770201 -121.299004 147.324997
57.216801 -132.289001 149.942993
66.400902 -130.473007 132.300995
34.558998 -118.542999 137.074997
58.369999 -135.100998 141.901993
29.028900 -121.703003 139.819000
57.889999 -129.460007 140.419998
31.889299 -110.473999 143.138000
27.792601 -123.831001 143.675003
22.104799 -121.999001 149.294006
61.883202 -113.058998 138.531006
41.710999 -132.811996 137.671005
36.791599 -133.664993 136.755997
30.039801 -120.985001 145.548004
57.753899 -136.104996 142.815994
54.632801 -129.494995 131.501007
64.161903 -125.874001 125.832001
26.710199 -112.126999 150.181000
35.369999 -130.104004 153.817001
33.947399 -118.039001 138.802994
64.070396 -136.358002 124.272003
21.439100 -135.416000 144.259995
31.136700 -130.595993 142.033997
54.561298 -127.297997 144.619003
24.986601 -109.022003 144.694000
20.982700 -124.898003 147.356003
47.837700 -128.007996 134.268997
37.280499 -131.445999 151.115005
16.863701 -125.617996 152.018997
41.437199 -133.169006 139.014008
57.768902 -132.647995 130.513000
30.844101 -107.986000 142.134003
58.608299 -116.434998 131.223007
42.226200 -119.668999 141.423004
53.048000 -125.036003 140.617996
35.520401 -130.742004 146.826004
65.513199 -126.057999 126.804001
42.301601 -123.790001 135.255005
36.457600 -116.723999 146.682007
40.563900 -120.467003 148.419006
25.027500 -123.974998 160.772995
29.298201 -102.821999 144.703003
27.284401 -132.438004 146.845001
19.675200 -139.358002 144.947006
55.423698 -127.469002 143.509003
60.351002 -139.104996 125.971001
30.855700 -128.171997 139.462997
31.741699 -130.459000 142.686996
35.842602 -131.884003 153.667999
44.076801 -132.391006 137.826996
45.433800 -127.884003 135.386002
62.943298 -130.931000 129.759995
58.050400 -136.598999 138.591003
31.084600 -115.822998 141.981995
32.219101 -134.501999 152.485992
54.749500 -112.539001 135.184998
61.270199 -138.807999 130.399994
31.926800 -113.710999 147.707001
58.625000 -130.268997 142.070999
60.810398 -112.877998 134.695999
66.940498 -117.126999 145.248001
35.938999 -110.103996 145.007004
18.254900 -124.542000 152.570999
60.634998 -115.893997 134.018005
49.426300 -136.007004 143.944000
21.956200 -135.119995 144.917007
27.947800 -116.527000 143.610992
35.390999 -132.227005 149.330994
48.911999 -126.460999 141.516006
20.224001 -131.492996 156.957993
63.662899 -129.166000 125.985001
49.721401 -132.431000 130.345993
56.296501 -125.941002 137.401001
52.109299 -120.323997 135.457993
35.241798 -132.953995 150.613998
58.733501 -128.576996 131.121994
24.225500 -139.371002 144.574997
36.407299 -128.059998 152.835999
23.435600 -125.792999 147.449997
32.513599 -109.116997 144.367996
26.431101 -116.115997 144.397995
60.972401 -126.857002 128.274002
49.895901 -134.755997 130.003998
59.025299 -136.878998 135.768997
19.340099 -130.994003 155.751999
47.082699 -128.156998 135.401001
59.275902 -133.063004 141.897003
23.387899 -139.526993 147.074005
23.167500 -124.160004 147.985001
57.172798 -111.908997 129.391006
60.089199 -129.873993 129.106003
61.205299 -130.214005 136.824005
59.815102 -127.880997 136.684998
35.720699 -127.572998 151.876007
57.385799 -139.507004 146.406006
50.891899 -115.672997 136.906998
61.152901 -112.530998 138.641006
58.666100 -111.730003 136.044998
22.341299 -140.365005 146.973999
58.756100 -132.087006 142.451996
66.734001 -130.604004 131.578995
41.697300 -130.550995 143.375000
36.087299 -116.217003 138.619995
29.846600 -113.191002 150.403000
33.673599 -128.725998 138.313004
47.710999 -126.682999 135.240997
45.911201 -122.783997 139.735001
55.090900 -134.391998 149.638000
29.827101 -130.770996 150.559998
63.708199 -113.988998 140.929001
35.986099 -131.822006 152.164001
34.015598 -136.151993 143.307007
62.251099 -131.250000 134.192001
59.994099 -135.365997 139.399002
28.157200 -107.584000 147.136002
56.358101 -136.643005 128.238007
47.286400 -133.350998 133.328995
62.272202 -135.050995 124.364998
45.659801 -133.233002 140.740997
60.533298 -133.880005 139.404999
62.734901 -136.854004 117.196999
34.539700 -105.054001 152.311005
30.082800 -125.873001 151.257996
35.216599 -123.608002 150.876999
51.833900 -125.748001 144.546997
52.389500 -113.128998 128.684006
65.359497 -131.856003 131.845001
29.818199 -123.092003 138.526993
52.316799 -130.662994 130.882996
20.268200 -122.816002 148.197998
25.973200 -114.546997 143.164001
54.156502 -136.373001 135.201004
22.013599 -113.961998 146.167007
45.968399 -118.656998 137.250000
27.231400 -106.014000 142.516998
33.564301 -112.707001 147.867996
16.036699 -125.181999 148.970993
56.202702 -127.427002 133.518005
19.683901 -139.085999 145.190994
38.174500 -118.463997 148.815002
36.923199 -126.391998 137.309998
30.846399 -130.173996 146.746994
33.220402 -115.376999 146.576996
58.473801 -134.477997 125.054001
52.440399 -133.591995 130.550003
41.957001 -128.108002 145.091003
23.913500 -109.041000 143.498001
60.578400 -131.891998 145.660004
62.549000 -125.545998 125.970001
61.385601 -126.814003 126.804001
57.408699 -113.272003 142.173996
32.555302 -107.677002 152.641006
57.280499 -135.692993 142.046997
31.021799 -132.132996 144.222000
56.444500 -137.914993 131.828995
22.210100 -114.593002 145.470001
26.706600 -135.358002 144.132004
34.893501 -132.606995 144.888000
37.437302 -130.871002 152.248993
52.948700 -136.511002 145.949005
22.523001 -115.026001 145.949005
60.293598 -114.377998 142.994995
61.363701 -132.268997 147.841995
59.487900 -114.580002 141.692993
47.928799 -131.188995 143.740005
56.444099 -116.661003 139.589996
33.118599 -131.789993 143.177002
56.014801 -129.792007 146.335007
62.726002 -116.778999 143.369995
54.142399 -126.352997 143.973007
21.899799 -140.641998 143.352997
59.369999 -130.307999 130.371994
55.253799 -110.056000 133.524994
16.988899 -127.877998 151.468002
61.648399 -116.263000 141.302002
67.980499 -127.833000 125.103996
68.979401 -126.047997 119.302002
56.414902 -135.804001 140.251007
67.207603 -125.246002 123.307999
52.597000 -137.393005 142.270996
52.419899 -115.815002 131.431000
56.842400 -137.039001 127.841003
62.414799 -115.522003 139.335007
51.600498 -125.644997 140.634995
61.331799 -111.739998 137.891006
21.049200 -130.863007 162.080002
30.548100 -102.809998 145.434998
55.789600 -135.824997 129.229996
39.040001 -130.082001 145.253998
26.708799 -132.537994 148.380005
61.533600 -115.480003 144.054993
64.977303 -128.751999 123.612000
32.820599 -132.054001 143.255005
31.415501 -135.785004 142.242996
54.562801 -110.482002 131.505005
25.027201 -128.610001 148.309998
48.502800 -121.541000 139.250000
43.587601 -131.018005 141.173004
63.885601 -137.845001 117.222000
20.033800 -128.582993 149.412003
48.084301 -135.169998 139.600998
68.484398 -118.129997 150.684998
42.081200 -132.893005 138.860992
38.185799 -126.959999 136.350006
48.424702 -117.912003 138.682007
21.818100 -130.395996 154.324005
20.689699 -137.335007 146.772003
61.702599 -138.255005 120.808998
55.045200 -127.487999 144.966003
42.765900 -132.848999 137.554993
45.239700 -132.436996 136.873001
20.748301 -140.550995 143.317001
48.754601 -131.673004 130.470001
46.843601 -129.628006 133.610992
38.796101 -127.973000 136.048004
34.327000 -107.737999 151.901001
22.163099 -122.998001 148.755005
52.509701 -112.662003 128.789993
29.105101 -105.676003 147.302994
68.866501 -125.264999 119.453003
56.963299 -127.717003 134.658005
58.266499 -128.487000 131.218002
49.482899 -117.389999 132.903000
52.298401 -115.115997 128.472000
51.079399 -119.167999 137.876007
38.537701 -125.898003 150.153000
59.749001 -137.755005 132.292007
22.708099 -135.289001 144.001999
65.010002 -137.278000 120.374001
38.933701 -132.188004 136.222000
19.432600 -124.481003 155.033005
61.924702 -112.468002 135.535995
20.495001 -129.901001 152.358002
58.032299 -135.098999 140.074997
49.609402 -130.684006 143.927002
47.066399 -132.362000 133.621002
57.143002 -135.891006 139.636002
67.036903 -125.255997 118.916000
50.677101 -121.289001 136.740997
45.077400 -121.685997 140.192993
57.092800 -127.963997 143.738998
62.585800 -116.308998 141.457993
48.447399 -127.142998 131.987000
56.292702 -112.491997 139.854004
25.378799 -113.406998 148.966003
32.231701 -103.897003 148.315994
25.041100 -123.248001 157.830002
22.204399 -114.543999 144.798996
47.328602 -119.055000 133.487000
21.035000 -131.121002 155.003006
18.721201 -128.289993 149.753006
61.492802 -130.619995 130.113998
22.974899 -122.741997 149.636002
34.430698 -136.134003 140.242004
61.713299 -128.912003 134.888000
55.611900 -115.462997 141.466003
40.926899 -130.044006 143.681000
49.610901 -119.567001 132.311005
53.133801 -137.311996 142.871002
39.352001 -116.920998 143.612000
66.798599 -130.229004 127.198997
35.754501 -132.552994 143.037003
61.846298 -113.168999 140.621002
20.297899 -124.271004 147.238998
36.756302 -132.005005 153.300003
51.052898 -124.669998 132.298996
24.601400 -129.160004 154.352997
22.039499 -128.776993 149.886002
52.116901 -114.473000 128.850006
58.624001 -116.496002 138.264008
25.867201 -126.948997 153.470993
22.356300 -113.103996 145.057999
53.635799 -111.999001 132.572998
60.490700 -115.966003 140.996002
65.690002 -135.904999 118.167000
26.669300 -124.786003 144.442993
31.234501 -116.056000 141.697998
64.467903 -131.412994 132.947998
65.020203 -128.164001 123.667999
33.430302 -106.733002 152.393005
29.775000 -125.283997 139.697006
24.021900 -114.224998 142.757004
37.946602 -130.102005 150.490997
62.371201 -126.360001 124.947998
59.310600 -128.673004 138.018005
61.599201 -131.671997 139.132004
23.446100 -129.628998 152.449005
55.425800 -136.990005 130.904999
48.162701 -122.509003 138.666000
56.955502 -110.154999 134.664993
57.625999 -126.429001 136.332993
55.979401 -138.328995 147.653000
51.266201 -111.742996 131.084000
57.592400 -112.672997 141.802994
55.784698 -112.660004 140.240997
34.915901 -102.168999 146.166000
63.351799 -138.397995 129.104004
46.243500 -133.860992 138.306000
47.204700 -117.865997 134.919998
15.667500 -123.978996 148.811996
38.192001 -116.260002 142.785995
39.099800 -120.002998 149.136993
29.118200 -137.942993 147.929001
20.611401 -138.121002 142.406006
43.763901 -120.492996 137.645004
54.773602 -137.794006 133.216003
21.279301 -122.593002 154.449005
69.099998 -119.445999 150.085007
37.704102 -130.897995 150.119003
62.897099 -112.498001 135.882004
32.717300 -114.971001 147.272995
52.808701 -123.192001 136.059998
30.961599 -136.819000 151.505997
54.209400 -125.732002 138.636002
25.467501 -125.882004 164.233002
68.769798 -118.778000 150.772003
54.485100 -122.764000 136.285995
66.838997 -115.791000 144.871002
62.707600 -114.070000 138.729996
56.089001 -135.014999 128.839996
35.815800 -130.177994 139.242004
59.756802 -136.662003 135.822998
38.694000 -127.902000 146.720001
19.525900 -130.901993 160.076004
63.057499 -126.012001 122.950996
28.791500 -103.921997 142.826996
30.508200 -125.877998 138.341003
38.055199 -112.233002 143.774002
44.999401 -125.514999 135.089996
31.122101 -137.391006 151.692001
55.636902 -132.223999 148.671005
55.165600 -136.880997 141.162994
20.943899 -131.197998 156.263000
33.994202 -131.522003 142.600998
29.252100 -114.239998 150.112000
27.253401 -132.498001 149.996002
37.441002 -128.141006 149.154007
49.484501 -122.440002 135.871994
67.990601 -127.986000 124.176003
40.927601 -128.951004 144.692993
23.287399 -131.556000 161.968994
24.740601 -128.929001 148.039993
19.818001 -130.143997 152.852005
53.746399 -112.732002 133.759003
30.825199 -129.580002 144.688004
43.047401 -123.230003 134.710007
45.176399 -129.500000 141.270004
25.864100 -126.434998 164.973007
23.074100 -122.650002 157.785995
24.638399 -133.341995 146.220993
49.924702 -121.153000 137.863998
50.237400 -129.576996 130.078995
25.150801 -126.946999 145.919006
53.617901 -134.472000 131.841003
36.039799 -115.727997 140.313995
34.196899 -135.085007 145.927994
30.132601 -129.059006 149.376007
32.460300 -116.484001 139.625000
57.716499 -127.987999 140.464996
61.233700 -132.733994 139.822998
34.410000 -101.561996 148.945999
59.737701 -115.989998 139.811005
28.979300 -104.226997 144.983994
39.874001 -130.925003 141.608994
38.698898 -132.550995 141.600998
32.130402 -122.930000 136.778000
39.136902 -129.684998 145.666000
26.512800 -105.540001 143.880997
26.841600 -125.453003 152.651993
25.197500 -128.919006 153.384003
66.927002 -126.800003 119.203003
24.248899 -116.158997 145.929993
38.952999 -132.177002 142.070999
26.525801 -132.919006 146.244003
53.679001 -136.376999 147.658997
32.471802 -122.866997 136.623001
24.402901 -116.704002 146.403000
57.341801 -135.561005 125.622002
30.793400 -115.398003 146.720001
36.603001 -106.063004 151.229996
22.895100 -130.908005 157.429001
31.860001 -113.334000 148.091003
41.267200 -119.598999 148.164993
66.822601 -116.675003 148.759003
56.748798 -137.494995 130.529007
38.692600 -134.705002 140.854996
63.096298 -113.098999 140.834000
37.098701 -121.800003 136.733002
40.551399 -128.949005 145.600006
23.904699 -124.307999 147.945999
33.404999 -112.364998 141.018997
38.326302 -125.810997 149.705994
58.039101 -137.151993 138.317993
66.244301 -115.137001 146.880005
26.078600 -123.584999 158.113007
34.882099 -110.203003 142.645004
60.429798 -127.277000 126.950996
45.171398 -119.167000 136.811005
60.005600 -114.660004 142.572006
53.270802 -136.781006 133.992996
56.616199 -123.847000 134.802994
35.676399 -126.039001 150.473007
28.188999 -124.110001 141.011993
59.432499 -137.231995 149.487000
69.049103 -125.482002 120.347000
60.773201 -115.877998 139.419998
29.388201 -130.634995 149.789993
60.289299 -132.671005 141.164993
47.564701 -127.321999 133.294998
19.662399 -138.856003 144.300995
46.373100 -121.721001 133.843994
52.595600 -126.941002 145.544006
37.028500 -104.871002 147.901993
53.528099 -118.084999 136.873001
52.085300 -111.676003 130.272003
68.958900 -127.502998 122.653999
61.131302 -137.285995 132.792999
60.894600 -134.427002 133.132004
57.231998 -111.113998 135.617004
32.707802 -124.833000 137.550995
59.503101 -127.317001 133.263000
23.939800 -110.103996 142.656006
46.295300 -133.057007 137.386002
21.310600 -139.192993 147.207993
56.822800 -136.210999 137.481003
62.177399 -139.192993 124.648003
24.742701 -131.231995 163.300003
62.847401 -131.561005 130.000000
46.370899 -128.904007 142.608002
42.311100 -125.125000 145.201996
58.943100 -131.380997 140.761002
38.828300 -134.970001 139.972000
67.097702 -119.362999 150.703003
20.274200 -140.677994 143.878006
26.528200 -114.771004 142.182007
59.408100 -130.785995 143.619003
41.440601 -133.031998 137.917007
41.868198 -132.126999 140.908005
59.112900 -127.628998 129.783997
35.245602 -116.543999 138.511002
47.861801 -119.181999 133.126007
21.771400 -136.983002 142.585007
44.174801 -131.757004 140.175995
27.720301 -128.190994 144.848007
64.735497 -130.630005 133.404007
41.092999 -122.213997 146.899002
37.730801 -131.792999 136.313995
32.133801 -130.585007 151.904007
24.299200 -129.647995 153.714996
36.694901 -130.854996 141.725006
48.981899 -136.651993 132.307999
31.500500 -116.386002 142.296005
54.879200 -136.380997 139.929993
52.929600 -111.427002 129.272995
53.546501 -125.862000 144.925995
68.197701 -128.279007 125.978996
41.748699 -133.052994 138.667999
19.859800 -139.242004 143.686005
61.864799 -131.291000 138.264999
56.761200 -134.813995 127.112999
62.648701 -113.741997 135.660995
