-77.871498 -129.369003 62.579399
-75.489799 -61.335899 52.983898
-51.090302 -128.641006 35.609798
-53.908298 -139.447006 51.492500
-94.981003 -138.184006 42.490601
-74.040100 -53.189400 68.494904
-40.186401 -135.242996 47.154499
-96.030403 -137.302002 45.719501
-57.361099 -139.781006 41.047901
-76.145798 -135.501007 25.392500
-50.893501 -64.350601 67.707901
-37.615002 -137.421005 48.688900
-82.916496 -136.201996 1.685780
-81.836197 -122.470001 23.044800
-69.124603 -140.134995 58.594700
-45.624001 -74.672600 70.209801
-69.633202 -56.720798 51.377300
-49.044998 -129.162994 40.949501
-76.355698 -120.988998 16.480400
-65.346497 -139.889008 63.099300
-76.172997 -126.848999 5.494260
-90.631203 -137.585007 49.525902
-58.402100 -96.390602 70.284500
-71.355202 -47.433399 71.234200
-52.764900 -69.738602 65.036400
-44.212200 -59.959099 61.376598
-70.939499 -100.759003 51.148300
-87.076401 -112.352997 -0.299253
-69.057098 -76.672401 60.355499
-58.197399 -139.582001 38.500198
-67.751198 -140.669006 34.653099
-82.378899 -110.306000 4.320510
-41.578201 -134.837997 50.126801
-64.039902 -104.827003 77.769997
-74.356102 -61.028099 61.105000
-51.422199 -130.524002 47.741199
-90.170502 -126.778000 -2.541440
-92.031197 -126.875999 42.279701
-70.906700 -140.246002 54.770500
-82.219200 -139.460999 49.497398
-90.643501 -109.081001 12.700800
-79.832199 -104.907997 46.308201
-34.466499 -78.271698 87.257500
-52.025101 -110.639999 51.374100
-74.124199 -112.856003 75.170197
-89.681198 -108.780998 8.613570
-49.209202 -134.682999 34.704300
-44.817101 -69.870499 73.286499
-60.572102 -51.882198 53.694500
-83.612503 -120.112000 26.809799
-38.375702 -78.935303 76.508202
-72.341797 -56.802502 56.559700
-42.100300 -81.511002 87.994797
-87.308998 -116.700996 13.915300
-73.132401 -61.641701 59.756500
-76.551399 -101.678001 51.057701
-72.267799 -50.117199 67.964401
-87.115402 -130.401001 44.477699
-75.525902 -115.241997 -15.743200
-76.627899 -107.997002 20.170500
-66.744598 -128.162003 74.224098
-47.604801 -59.420799 59.070202
-64.420097 -101.149002 47.328899
-65.940598 -39.075600 43.828499
-64.352203 -71.359596 56.581501
-82.072502 -123.153999 -12.776200
-76.645599 -72.322601 49.308701
-70.065201 -48.719299 68.697304
-55.489601 -107.360001 48.782001
-34.901299 -78.956001 90.261902
-87.345100 -120.483002 53.931198
-87.839104 -108.042000 19.183001
-69.071198 -57.686401 49.611000
-60.495098 -97.725304 48.228802
-89.287903 -128.345993 54.974201
-76.887802 -100.732002 57.867001
-62.485199 -89.788200 55.224998
-81.473900 -117.320999 39.398399
-83.581001 -125.225998 -11.982000
-51.020401 -115.101997 59.311401
-40.724400 -136.291000 54.088600
-84.943001 -136.481003 0.582282
-49.566299 -128.850006 63.606701
-83.739403 -128.477005 44.979000
-91.220901 -123.571999 41.167900
-60.608501 -95.690598 72.987602
-64.844101 -107.644997 37.737301
-72.778000 -103.658997 63.761700
-87.081596 -137.839005 50.750000
-74.652298 -53.130299 67.543098
-68.731598 -58.222599 49.112000
-44.766701 -123.281998 61.841301
-46.088799 -110.343002 62.869499
-68.426399 -51.656799 52.967899
-78.610802 -108.973999 28.933100
-71.862701 -90.353699 51.820202
-57.917400 -94.905197 60.565201
-63.466499 -44.818802 49.003300
-40.711601 -72.398399 85.717102
-40.936100 -71.835602 85.209702
-79.256104 -99.271103 56.331299
-69.556900 -54.940498 46.702202
-75.490799 -54.460999 66.575699
-38.724098 -134.281998 44.003601
-82.756401 -127.032997 29.361401
-82.770599 -103.559998 15.385500
-90.108398 -109.972000 10.867100
-90.781502 -109.528000 13.056500
-69.974098 -134.130997 69.496498
-74.581703 -73.561600 54.748199
-58.776402 -105.033997 76.828499
-44.168201 -133.617996 53.250401
-59.557098 -99.127197 50.337700
-80.706001 -133.820999 54.930801
-74.689003 -58.303398 53.237099
-72.277496 -108.878998 74.514801
-81.350899 -130.867996 -12.940100
-50.853401 -66.807297 69.408203
-86.548302 -126.922997 -12.267700
-66.271400 -137.481003 87.982399
-65.936699 -49.193001 64.303902
-68.321503 -50.847801 63.792702
-35.275902 -73.832100 82.052597
-69.486801 -134.216995 69.590202
-78.834801 -139.727997 45.998100
-41.325802 -137.358994 40.908001
-75.103600 -133.968994 62.998901
-79.058197 -125.570999 -19.237801
-65.378304 -137.789993 66.119698
-61.114101 -49.168499 55.899899
-67.983902 -53.727798 45.871899
-82.888496 -139.115005 49.126701
-33.368801 -77.627701 89.000298
-86.392700 -104.165001 10.376600
-80.298798 -131.044998 -0.745318
-63.995098 -69.942200 55.800598
-62.945801 -43.524399 49.472698
-48.293900 -116.324997 42.008400
-78.007797 -118.362000 10.111800
-96.306702 -135.113007 42.244499
-62.030499 -85.032303 54.492100
-79.773102 -109.422997 27.869499
-53.476799 -104.623001 53.395401
-45.537201 -76.658699 79.591698
-79.992203 -134.882996 28.447399
-70.534897 -128.753998 77.480400
-76.877098 -114.308998 11.653200
-43.579800 -78.091599 81.048599
-58.152901 -60.831501 66.008003
-70.717697 -75.688904 59.437199
-35.561699 -76.513603 83.095200
-73.072899 -105.219002 59.693401
-35.356998 -77.933197 90.639297
-62.478802 -85.035103 62.207802
-70.095497 -134.296005 80.438400
-54.091702 -105.259003 52.067101
-48.953899 -71.452301 73.476799
-78.145897 -129.011993 23.880800
-34.355099 -84.971497 84.834602
-90.210701 -121.413002 41.531399
-76.558403 -75.579399 49.778702
-62.170399 -135.819000 81.266998
-84.206100 -103.757004 14.563100
-81.923500 -126.693001 28.062300
-73.543198 -104.391998 47.067699
-86.019203 -122.259003 8.729820
-74.961800 -102.848000 55.950699
-69.138397 -100.984001 48.313000
-63.277100 -132.863998 71.971199
-68.708702 -50.806198 57.475601
-58.173698 -111.765999 36.330399
-84.343201 -136.229996 37.910999
-64.361397 -74.012001 57.555302
-51.246201 -63.296902 66.035202
-64.028603 -114.861000 33.295700
-63.747299 -135.391998 81.206100
-76.671700 -73.994598 49.224400
-79.539597 -109.559998 28.754000
-68.669296 -82.986504 51.309700
-45.229900 -73.674103 82.520401
-83.061897 -138.917999 50.180801
-66.116096 -133.417999 75.115196
-86.828300 -130.136002 44.283901
-85.080902 -116.042999 29.328199
-44.874298 -136.287994 37.474701
-61.497002 -140.119995 35.544102
-74.701202 -108.286003 57.845798
-63.295502 -100.085999 76.553703
-74.582802 -107.488998 40.003399
-72.297600 -58.064400 53.446499
-65.316299 -105.566002 38.744202
-81.974197 -104.319000 14.067200
-49.297501 -127.341003 62.574299
-74.747803 -67.720802 56.884800
-74.698196 -76.643204 50.254101
-74.263901 -112.208000 31.059200
-63.492100 -46.038399 52.068901
-55.114201 -130.294006 33.949001
-76.481796 -72.980797 49.678902
-82.606102 -118.633003 57.180801
-49.425900 -134.132996 59.236900
-84.536003 -132.160004 -2.564970
-68.683296 -120.074997 75.312599
-57.599602 -61.363499 66.890800
-76.907097 -108.726997 13.246200
-84.640602 -128.843002 1.257570
-71.889702 -111.918999 32.737400
-43.718899 -114.602997 67.771500
-61.787701 -105.528999 77.882103
-63.772800 -78.314499 58.177601
-49.108898 -66.179398 70.091698
-78.382301 -134.514008 4.372990
-77.904900 -114.559998 4.663940
-79.712097 -120.700996 -15.203300
-75.489098 -110.099998 25.350500
-79.008301 -105.317001 51.435600
-77.349602 -106.084000 44.149799
-69.284203 -93.766403 67.314697
-69.738297 -91.305199 65.789101
-77.689003 -113.653999 40.514801
-48.210400 -61.609100 70.537903
-49.366798 -129.977997 57.847099
-53.832901 -124.456001 35.815201
-78.327103 -106.186996 26.124599
-88.664299 -111.523003 19.510900
-34.897400 -76.178001 80.971298
-47.011101 -113.855003 59.169399
-84.941902 -130.908005 -8.408180
-79.921700 -117.906998 55.993801
-57.603100 -139.705994 61.375999
-58.269798 -60.164799 52.669701
-84.513397 -110.613998 25.265301
-77.082397 -117.327003 -13.604700
-59.320702 -65.193703 65.170197
-75.498497 -123.245003 67.930603
-55.710602 -63.032501 55.542500
-55.178398 -61.226501 66.629402
-55.230701 -110.393997 37.128201
-48.934200 -105.754997 56.949501
-77.285896 -123.394997 -17.417700
-77.147003 -118.444000 69.289803
-59.108700 -96.942902 71.424500
-68.070503 -48.663399 46.628502
-90.324699 -125.856003 -2.547390
-67.422401 -46.597698 58.101501
-77.539597 -108.311996 27.864401
-89.027298 -104.886002 4.152980
-72.435204 -47.866600 71.363998
-48.644798 -71.400597 66.132500
-47.446400 -72.219200 67.827003
-56.910198 -57.831600 54.355801
-47.237598 -70.908897 75.750099
-54.018101 -131.132996 72.435600
-47.598598 -131.464996 47.523701
-43.730301 -62.445599 69.334900
-68.237801 -65.559700 59.893299
-50.935799 -70.155502 67.814796
-87.878998 -120.532997 56.285301
-61.677200 -112.107002 43.676998
-76.144600 -140.897003 35.385101
-52.368000 -74.748802 65.454498
-62.948898 -133.811005 71.669197
-72.549004 -54.677601 53.934502
-34.134800 -76.561401 90.894600
-83.565697 -104.059998 13.574300
-54.324100 -99.299500 61.816299
-62.758499 -112.396004 42.953999
-78.565201 -121.837997 60.198399
-44.624199 -138.048996 39.084202
-60.907799 -106.614998 76.534500
-48.714001 -122.639000 60.704300
-71.450897 -53.254700 66.999496
-82.333801 -133.964996 6.110970
-67.813400 -50.344898 59.213902
-73.875504 -58.090900 53.057098
-47.066399 -122.662003 61.516800
-76.781303 -111.398003 34.211300
-71.788597 -91.100899 58.878101
-89.239601 -136.322998 52.466400
-42.768700 -81.328003 87.537903
-84.287399 -125.027000 34.818199
-82.755699 -121.082001 23.124500
-65.514801 -139.360992 83.573601
-76.819801 -102.845001 56.576900
-74.814903 -63.115002 53.085999
-78.164902 -67.597801 46.785599
-74.518600 -112.054001 16.746201
-68.231102 -47.386299 58.826000
-60.187599 -103.238998 76.362396
-69.275497 -105.184998 43.282600
-52.587002 -139.059998 43.822201
-53.144100 -59.199001 68.785301
-54.000702 -74.781197 66.146301
-76.318100 -121.689003 64.258301
-65.435402 -51.693199 49.549000
-75.517502 -106.322998 57.050201
-69.382797 -105.892998 42.147202
-55.511600 -113.098999 51.091202
-72.450798 -106.746002 38.419102
-64.998497 -45.772202 49.113300
-78.920502 -119.827003 1.021150
-73.369499 -116.529999 -14.743200
-72.739502 -62.354198 58.883301
-50.293900 -72.606003 58.079399
-66.062798 -46.223801 46.989201
-77.174400 -118.141998 57.827099
-72.834297 -71.056900 58.829399
-73.923203 -50.903301 65.262398
-72.746498 -57.173698 65.522400
-67.229202 -44.657902 48.200600
-64.940804 -46.794300 49.490101
-50.220901 -127.042999 49.246799
-74.194504 -116.723999 -13.761000
-65.208702 -41.054298 48.334000
-50.389301 -138.947006 45.013401
-68.503601 -59.909401 64.590500
-50.117901 -127.022003 49.734501
-55.646702 -60.907501 58.667301
-67.813400 -50.815498 64.970901
-33.775600 -76.884102 92.804497
-55.914101 -105.000999 54.565300
-64.645500 -103.224998 43.036499
-60.552700 -111.855003 45.748901
-73.579697 -105.425003 45.134300
-84.775200 -118.753998 13.565100
-78.008400 -123.524002 61.692200
-89.199097 -107.945000 13.670200
-69.614502 -54.145802 49.054199
-54.406799 -103.681999 70.228302
-53.602699 -139.378006 46.818199
-67.121803 -136.179001 84.844200
-56.552101 -107.564003 49.231602
-35.374001 -76.603798 82.571404
-79.064796 -113.133003 4.322980
-61.811501 -112.029999 41.757702
-45.468102 -130.311996 46.981201
-45.585300 -77.173103 72.977402
-76.757202 -69.462303 48.998199
-75.930397 -122.181999 -16.364500
-74.844200 -104.214996 47.360100
-77.012901 -99.990700 57.047401
-49.734001 -112.614998 65.441498
-32.270000 -75.116203 95.313698
-83.030502 -120.194000 22.663900
-82.294701 -106.623001 9.938750
-44.357899 -121.518997 65.276100
-40.425598 -134.248001 56.738300
-71.209900 -135.339996 73.058998
-43.164200 -119.848000 65.140198
-64.560997 -51.711102 51.278702
-76.748398 -104.582001 30.188101
-77.574402 -103.250000 28.154200
-82.290802 -128.707001 28.617500
-82.817596 -124.114998 64.823402
-54.478199 -129.904999 72.689301
-65.043503 -137.580994 77.744400
-76.232300 -106.239998 29.476299
-93.361298 -130.886002 40.072300
-70.254303 -103.278999 58.539398
-67.028397 -85.613297 51.801498
-63.187000 -104.130997 55.910599
-79.805099 -134.507004 55.003799
-76.731697 -135.373993 59.421398
-53.158699 -139.425003 53.809101
-78.618896 -122.001999 -0.329429
-49.610901 -120.296997 57.128899
-74.403198 -109.748001 53.005299
-59.325699 -93.741302 68.271301
-50.392700 -136.035995 54.606998
-52.559200 -124.129997 73.446800
-65.305000 -48.070400 54.035999
-76.664299 -108.748001 32.007099
-90.900002 -112.558998 7.667590
-70.727402 -113.992996 25.944201
-88.168701 -128.580002 -3.838240
-62.615101 -53.961899 52.426201
-39.359200 -75.290497 87.624298
-71.055901 -95.935799 62.054600
-54.459599 -108.761002 49.172699
-76.165199 -122.999001 -7.831790
-75.306099 -107.999001 64.381599
-34.538399 -85.278000 84.640404
-75.536400 -101.748001 51.216301
-77.725899 -124.125999 62.353199
-63.310902 -65.824501 52.898201
-81.758301 -137.792007 47.903099
-86.380402 -117.957001 2.422840
-92.242401 -124.593002 40.696899
-55.891399 -124.197998 75.978600
-82.910400 -105.852997 10.413500
-47.863098 -136.044006 36.625599
-54.371101 -111.515999 75.192200
-95.008499 -139.472000 47.850700
-65.388802 -74.591698 59.002300
-71.598801 -94.404099 58.775902
-80.792603 -138.199997 38.517899
-66.170097 -79.618599 60.348999
-75.107201 -82.668198 49.738998
-50.244499 -113.716003 66.623398
-74.725502 -121.275002 18.560101
-65.827301 -115.819000 32.636200
-88.404297 -106.029999 3.849920
-62.793598 -57.139599 66.368896
-82.947800 -130.112000 47.012699
-74.084297 -130.854004 71.291702
-75.925499 -120.848999 -16.872400
-68.155197 -83.766602 62.209499
-48.237202 -108.880997 60.752701
-73.327599 -116.188004 -14.950100
-34.612900 -79.821899 87.896599
-80.830498 -104.094002 19.624001
-80.379799 -132.643997 -0.269189
-49.363098 -124.063004 65.874901
-52.543301 -112.676003 72.969299
-82.943901 -131.421997 6.949110
-58.860699 -139.932007 38.597801
-37.469799 -76.295197 76.911797
-74.779099 -140.738007 33.056301
-65.083199 -99.727798 56.928501
-43.922298 -74.552002 83.978302
-83.891701 -129.416000 47.451599
-40.937801 -82.297401 80.370903
-59.061699 -95.327797 71.603302
-78.997597 -119.223999 -14.654700
-78.030197 -129.080002 -12.277000
-78.179604 -69.536797 48.209702
-47.156300 -136.537003 55.334999
-69.823402 -77.081200 60.046501
-64.659798 -113.662003 40.223900
-44.348900 -81.712700 84.383102
-58.562500 -69.185501 59.720001
-36.229000 -80.754501 87.442802
-78.083000 -107.292000 22.722200
-83.990501 -117.694000 18.043200
-82.401299 -131.970001 -1.901500
-65.905602 -47.737301 44.932301
-57.710499 -66.746002 65.371101
-87.934502 -139.128998 50.720100
-72.804703 -108.898003 37.196499
-58.324699 -105.578003 76.189201
-39.217800 -83.266602 79.085197
-66.934601 -45.805698 60.373402
-68.593300 -50.236301 46.796700
-51.482201 -122.301003 34.861198
-50.964001 -64.291603 63.393299
-69.823502 -97.167801 56.421299
-67.197098 -106.410004 39.855801
-55.559399 -63.487598 55.961300
-62.496700 -102.078003 43.064201
-37.602600 -85.220596 82.043701
-75.496597 -116.872002 -13.522300
-77.319702 -122.855003 19.185699
-47.491699 -68.418503 66.939903
-73.404198 -55.372101 60.464100
-63.963299 -65.463501 52.375000
-87.703300 -114.837997 38.494999
-38.788200 -71.785797 80.926399
-80.846603 -110.900002 37.037300
-69.953796 -138.625000 84.671898
-75.686996 -55.365002 53.394501
-46.493198 -67.958801 72.178101
-59.248901 -66.717598 64.262604
-81.994003 -103.129997 18.218399
-44.032299 -120.204002 67.110603
-52.009102 -119.120003 72.128098
-73.381599 -85.639099 54.694599
-57.327000 -51.777302 57.688301
-35.549900 -84.539398 84.773201
-45.077999 -72.728600 81.905998
-55.604099 -59.867100 56.698502
-89.816399 -122.336998 42.207001
-72.398804 -101.360001 45.033798
-51.840401 -113.884003 72.064499
-60.853401 -91.300201 70.352097
-75.409500 -65.584801 52.576000
-52.476799 -112.921997 37.014099
-78.311699 -114.662003 40.488300
-78.820801 -128.076996 -10.016200
-77.051102 -101.491997 58.185902
-52.324799 -58.061501 68.066399
-94.477898 -138.841003 49.305698
-67.103600 -126.722000 74.671898
-88.561996 -114.303001 3.357410
-56.322601 -131.117996 35.181198
-84.578499 -129.606995 -2.351910
-85.009598 -131.641006 4.758190
-65.677101 -40.723099 47.861401
-54.272800 -115.640999 34.428699
-49.148300 -126.668999 54.327999
-69.954102 -101.369003 54.471699
-90.629997 -112.040001 8.448070
-39.388802 -132.020004 44.635300
-85.057701 -105.775002 8.856530
-66.675499 -48.767899 63.337700
-80.817200 -132.940002 52.192001
-74.617798 -122.276001 74.044502
-72.661697 -58.738499 56.285702
-88.778198 -118.737999 41.074600
-68.505096 -135.774002 26.107100
-46.026299 -114.964996 69.482697
-83.289497 -136.871994 38.956501
-49.092300 -114.834999 68.506599
-67.231201 -46.573002 45.574001
-47.391300 -109.765999 56.679298
-77.790604 -116.418999 10.069800
-55.112499 -105.310997 73.321503
-83.251503 -135.863007 49.908100
-64.412498 -50.171600 50.375500
-69.681702 -49.407700 68.620201
-80.536003 -120.646004 -0.580483
-73.277603 -86.457603 50.501301
-82.960197 -128.576004 1.969400
-34.283600 -78.209702 86.405098
-61.081100 -91.127899 70.390999
-73.044296 -84.125900 52.925800
-82.734200 -128.709000 1.746080
-68.897797 -95.039803 53.858501
-66.044296 -133.069000 26.022600
-39.854698 -70.818604 78.074699
-78.989899 -140.016006 41.431801
-64.953697 -137.781006 29.760401
-87.598396 -116.432999 13.873500
-51.361000 -117.237000 58.366501
-75.460403 -101.949997 50.801300
-87.093002 -139.987000 45.569500
-67.526604 -132.858994 71.747299
-68.873497 -49.960999 47.686901
-77.712601 -129.757996 1.395680
-76.379402 -111.189003 65.178200
-76.234398 -56.945999 65.470901
-76.427200 -117.416000 59.966400
-76.179298 -127.814003 1.693120
-76.099602 -116.357002 15.239700
-52.695099 -118.893997 48.403500
-51.350601 -61.417900 65.900597
-74.881897 -119.432999 -12.767700
-77.844597 -105.041000 27.262501
-44.303101 -120.462997 62.881401
-66.888298 -138.259003 88.766701
-59.266800 -101.584999 73.638199
-64.720299 -139.343002 64.232597
-90.460098 -126.408997 -3.460240
-68.081200 -76.118896 60.488098
-90.861702 -128.806000 -8.195510
-85.051300 -117.133003 23.145399
-44.058498 -71.028702 74.374199
-63.696301 -64.090698 52.611500
-74.982101 -130.384995 22.924200
-67.706802 -117.946999 25.952000
-41.874599 -63.353901 67.537003
-70.428497 -139.744995 30.107000
-88.484596 -121.720001 58.090302
-65.731201 -61.027802 65.038803
-67.356598 -47.879501 45.790699
-49.888302 -61.232800 70.355797
-65.326599 -68.050797 58.809399
-90.537903 -135.436005 39.352600
-41.102600 -77.251099 83.792603
-59.970402 -60.092201 64.425797
-76.119499 -57.101101 65.726700
-65.962097 -88.053703 52.759899
-85.357803 -140.391006 43.374699
-64.132599 -136.134995 71.052696
-73.796303 -140.378998 55.151600
-85.174202 -130.485992 -2.588530
-73.814102 -139.399994 58.451302
-82.658096 -117.610001 42.214901
-53.276001 -61.188301 68.946198
-69.865501 -134.957993 86.669701
-66.311699 -137.856003 65.862801
-73.422600 -132.417007 73.913803
-77.939598 -104.411003 27.052601
-77.086098 -74.652702 48.651699
-84.054398 -128.186005 46.269600
-87.556396 -112.360001 -0.239939
-59.273499 -90.650703 62.106300
-87.754799 -139.070007 48.941898
-66.865196 -47.688900 45.185001
-82.630699 -134.214996 33.525002
-60.577099 -102.561996 44.050301
-83.138802 -103.219002 15.478000
-86.943802 -128.328003 -2.845870
-31.707701 -75.681198 94.030098
-94.637802 -135.524002 48.318100
-76.420700 -129.227997 64.291100
-49.006302 -68.427200 70.766197
-69.600998 -95.609398 67.781799
-52.527302 -118.305000 47.463600
-71.496902 -99.093697 46.343399
-69.615997 -138.968994 84.336304
-56.340599 -125.933998 73.572197
-47.806301 -71.380302 61.986198
-81.597099 -119.213997 -2.185490
-70.303497 -138.350998 85.612503
-62.168701 -112.387001 42.775799
-88.635902 -126.825996 -2.017000
-89.016296 -118.963997 40.244400
-62.836498 -50.817902 53.419201
-84.321899 -116.872002 41.707802
-72.271400 -140.373001 51.786598
-43.064301 -121.194000 63.139000
-67.980698 -130.412994 24.267000
-76.013702 -133.843002 25.485300
-73.168900 -85.944199 50.671200
-84.288696 -115.598000 -0.489286
-72.460899 -140.753006 32.217999
-82.005096 -138.363007 51.017300
-66.862999 -49.453999 47.201099
-91.089203 -128.837006 -5.549900
-65.360802 -134.417007 27.066200
-85.606796 -136.339005 0.230266
-61.698700 -136.223999 71.056801
-47.790798 -74.481102 60.939499
-74.052299 -140.919998 35.734798
-69.635002 -58.220600 51.604500
-31.512199 -75.226700 95.159599
-74.753197 -46.596699 72.065697
-68.772400 -116.004997 29.946100
-68.788902 -125.697998 76.109398
-56.193501 -135.156006 37.790298
-59.872700 -59.828098 65.931602
-77.965897 -120.255997 9.093000
-62.349800 -48.250000 52.407501
-49.866100 -60.257801 60.027901
-58.069500 -111.004997 50.415798
-73.975601 -114.740997 -17.836901
-63.927601 -132.699997 72.551903
-62.832901 -100.530998 45.464100
-46.164799 -68.135902 72.549896
-64.327103 -104.933998 39.571701
-53.518700 -59.315300 56.787102
-63.331402 -104.858002 40.137100
-62.473801 -107.344002 43.532398
-79.505501 -102.382004 51.551899
-74.105400 -110.740997 25.900299
-60.266701 -97.637901 59.049500
-53.940601 -60.925999 64.022202
-58.483601 -101.459999 72.961998
-74.474800 -128.466995 66.382500
-78.113701 -112.939003 37.497200
-63.721100 -45.075802 51.398102
-87.893700 -130.863998 59.322102
-51.213100 -128.220001 47.315899
-65.435204 -47.368801 53.808701
-63.748798 -118.595001 26.951900
-81.432297 -121.781998 -12.912000
-38.198200 -73.459396 81.932999
-70.627296 -96.873596 66.071800
-48.232201 -131.003006 45.755100
-74.351196 -110.237999 35.993801
-88.214897 -123.818001 48.661301
-64.967499 -40.704399 48.071701
-42.607101 -77.755600 82.501801
-82.759102 -136.031998 37.961601
-58.878300 -135.259995 78.925201
-51.708099 -124.667999 70.121101
-76.763100 -127.089996 -10.527300
-74.588203 -110.304001 35.103401
-59.446098 -99.506104 50.486801
-90.182198 -125.885002 58.340000
-68.007202 -53.775501 64.429199
-46.550098 -132.501999 49.617401
-78.651398 -110.422997 7.016190
-52.501202 -102.971001 58.640598
-83.195702 -101.183998 15.499500
-90.784500 -135.796005 47.335300
-55.148998 -104.448997 72.617699
-79.302597 -139.535995 44.603100
-56.002300 -61.005001 59.664799
-78.201302 -106.608002 26.644501
-57.325802 -99.864304 60.411900
-55.298698 -137.307007 65.696098
-53.737202 -102.718002 58.399502
-84.782303 -115.593002 -1.574270
-73.360298 -84.003098 51.244900
-54.385700 -109.108002 38.161701
-73.842102 -83.421997 50.615002
-62.756599 -93.317902 56.140999
-44.987400 -73.102898 83.845596
-91.148598 -128.858002 -6.462890
-65.026703 -47.419601 46.321602
-72.290604 -124.722000 76.706497
-75.401497 -109.570000 16.160299
-66.238602 -127.682999 74.260399
-54.545601 -115.690002 48.622898
-83.119003 -121.245003 61.589699
-76.010399 -118.924004 -10.456500
-69.614197 -94.231598 66.949799
-64.706596 -120.625000 76.732903
-63.219700 -60.396198 65.035004
-81.578300 -116.917000 0.067383
-54.224098 -68.337700 64.741699
-75.187897 -126.797997 66.238602
-68.431297 -51.260101 62.439301
-58.461800 -93.649200 63.407600
-87.068001 -124.910004 44.659401
-41.145199 -133.061996 41.086800
-77.588699 -124.408997 62.692699
-66.755997 -70.986603 50.722698
-59.969898 -49.055801 57.355099
-57.622398 -104.396004 58.127102
-46.270599 -74.347702 75.853996
-58.633499 -105.644997 76.280098
-58.068501 -101.792999 72.350197
-47.145302 -57.503799 68.378304
-67.773903 -51.452999 66.023300
-68.207497 -87.522598 65.343597
-77.520401 -140.563004 45.834400
-81.611099 -106.128998 22.137100
-49.839500 -72.937698 66.500099
-72.667702 -105.664001 37.296600
-35.049599 -78.486900 91.447502
-72.431999 -59.881100 52.503700
-83.378304 -138.578995 49.740601
-50.949501 -130.223007 65.197197
-82.438499 -139.307999 49.189999
-79.766800 -125.053001 24.000500
-67.221802 -74.428101 59.972198
-91.086800 -139.156998 45.999199
-70.944000 -139.082001 61.809898
-90.027000 -133.742996 46.663898
-41.334400 -72.764702 85.321602
-61.652199 -51.009899 54.008301
-72.248299 -103.443001 43.669998
-76.193497 -106.314003 31.660700
-64.605904 -137.865005 77.951302
-80.139603 -129.231003 -10.653600
-37.501099 -134.977005 46.805698
-41.685101 -134.686005 40.268600
-53.507900 -113.651001 52.812599
-77.580002 -106.865997 43.020802
-50.243099 -116.653000 45.465302
-70.395699 -99.892502 44.335098
-80.887703 -133.533997 54.085499
-86.389702 -135.908997 1.555060
-63.791500 -57.370899 51.338600
-48.503899 -112.345001 42.268200
-77.172798 -123.417000 -7.271820
-61.218800 -99.170799 49.774799
-73.302200 -84.316803 51.618999
-75.969597 -125.042999 6.034140
-77.567101 -117.611000 -16.224501
-74.433098 -77.514397 55.290001
-68.889503 -51.102001 50.556400
-75.161400 -101.716003 54.981300
-70.139099 -90.025299 64.712097
-49.009499 -115.771004 62.405800
-33.165001 -77.161400 91.783997
-56.047699 -104.763000 74.534599
-75.892601 -116.841003 15.648200
-69.800201 -114.549004 24.358200
-76.248001 -117.343002 62.195000
-80.135597 -108.574997 42.332001
-50.062599 -127.700996 50.457500
-60.671600 -49.253300 55.649799
-78.255302 -140.488998 42.503201
-40.683601 -134.667007 48.736801
-54.054699 -74.819603 65.026001
-70.187798 -131.029999 23.849199
-52.030800 -127.098000 36.374500
-74.662201 -117.160004 -12.948300
-43.825199 -133.371002 53.989399
-82.938499 -103.149002 15.575100
-58.541901 -133.141998 71.339798
-46.300800 -135.630005 36.754299
-49.730701 -60.507599 70.172997
-52.369400 -65.574699 63.842499
-74.256302 -63.746601 54.391399
-50.308102 -110.271004 67.199997
-79.229698 -106.864998 11.834200
-75.186996 -81.741402 48.541801
-67.128403 -44.511501 47.987999
-66.130096 -57.049099 65.265900
-66.975304 -72.098801 59.565102
-68.378998 -75.823097 60.395401
-76.249901 -117.040001 15.345400
-50.063099 -68.709198 58.649799
-37.956902 -83.124298 82.765602
-37.631901 -137.242004 49.194302
-33.922298 -76.689301 91.313904
-77.392502 -110.852997 10.920000
-68.379303 -48.919300 46.962601
-47.928699 -138.119003 53.368900
-63.212200 -116.913002 28.810101
-65.488701 -62.574001 51.564098
-50.600899 -135.985992 61.415798
-67.240997 -118.359001 26.324900
-64.797302 -77.098297 58.982498
-87.748802 -130.268997 36.916100
-63.872601 -51.114899 65.600700
-39.334301 -71.541801 77.495796
-77.707100 -116.013000 9.711690
-77.748001 -62.452801 50.365898
-83.963501 -101.754997 16.663300
-55.742901 -126.682999 36.141499
-67.204803 -79.858704 50.885899
-62.461498 -103.478996 41.596100
-60.589500 -60.410099 64.011597
-48.365898 -120.771004 61.973999
-59.061699 -49.530102 54.750801
-43.732399 -72.096199 84.671898
-37.276699 -70.950500 80.284500
-74.408699 -127.886002 66.661003
-42.036201 -131.677002 46.615501
-82.350998 -127.406998 27.992001
-72.345703 -121.560997 19.914801
-84.841698 -114.871002 -0.551078
-86.064301 -120.751999 49.075199
-60.595699 -111.445999 43.070499
-72.834900 -112.711998 31.219200
-89.014397 -125.772003 42.871700
-42.885899 -61.518299 69.691299
-69.969902 -53.184898 58.377102
-67.761597 -109.587997 76.070297
-79.824203 -104.482002 50.638599
-47.552898 -132.925003 36.167801
-74.180298 -63.307201 54.315300
-85.348602 -123.322998 6.527030
-67.903099 -107.824997 76.386101
-70.227501 -80.710197 60.667400
-68.740997 -46.624199 59.037800
-69.966904 -133.395996 80.115997
-85.408699 -131.675995 4.510040
-87.105499 -114.727997 39.722099
-61.615700 -137.311996 67.304398
-84.302299 -115.024002 36.693600
-72.719902 -60.424599 63.688000
-57.417702 -52.599899 62.997299
-76.974297 -121.785004 17.005899
-78.013298 -113.428001 38.673000
-70.423500 -72.917000 59.698700
-54.115398 -74.333000 65.994698
-49.449299 -69.309502 58.911701
-54.866199 -116.390999 34.159801
-64.347397 -139.261002 85.128403
-81.140602 -129.328003 -1.520220
-75.301697 -115.042999 -15.756200
-77.603104 -129.638000 62.733898
-66.108597 -85.754898 64.670197
-77.378304 -140.735001 39.546700
-79.625298 -129.654999 2.037250
-37.435501 -73.671303 80.257599
-68.841499 -134.169006 24.886101
-86.568100 -114.217003 27.259199
-60.298000 -125.260002 26.467501
-79.756699 -134.729004 54.707199
-72.402100 -53.471100 67.539001
-65.718803 -125.793999 24.600000
-60.821201 -51.505600 53.838600
-77.155502 -109.801003 30.890900
-76.224403 -114.733002 13.804400
-42.321899 -75.091499 72.092003
-57.701801 -96.353798 69.021896
-58.748402 -102.121002 73.210800
-36.077202 -76.435600 86.923599
-58.442101 -112.091003 76.772499
-62.878899 -134.000000 86.854698
-62.529900 -114.038002 77.481102
-75.009598 -53.157398 53.466202
-87.790298 -110.307999 0.716002
-72.586998 -112.392998 19.557400
-63.753601 -63.511600 52.337200
-47.786598 -61.456402 64.480202
-64.327103 -95.718300 55.900398
-73.352501 -85.469101 54.163601
-77.754997 -76.304802 48.090099
-60.605202 -126.448997 26.032301
-76.528198 -113.054001 45.576801
-66.269203 -114.036003 38.344501
-75.458702 -122.919998 67.094498
-71.803703 -139.024002 61.105202
-57.082699 -56.163799 64.370102
-42.307598 -131.001007 49.652000
-58.978298 -112.591003 47.363701
-69.318703 -135.438004 88.631599
-40.793900 -77.398903 84.425102
-46.022701 -120.499001 69.146797
-85.001503 -140.621994 43.856400
-76.172600 -61.426399 49.590302
-89.569603 -129.468994 43.713799
-63.820499 -135.048996 86.936699
-56.546700 -69.689102 65.141701
-73.745598 -49.812199 66.026100
-34.564602 -85.856201 82.922401
-47.242802 -71.767799 75.941299
-63.950600 -42.275002 49.317101
-44.780300 -70.301300 73.944397
-59.877201 -119.797997 76.790001
-52.297100 -74.872398 65.182404
-36.495800 -74.556503 83.705002
-58.664398 -51.186600 61.497700
-48.623402 -107.489998 55.693001
-58.341000 -99.794998 46.813702
-74.349800 -82.922699 51.093899
-84.869499 -109.486000 24.028799
-64.513702 -56.558399 50.915001
-80.872002 -123.012001 11.689900
-66.498199 -133.567993 82.842201
-36.920799 -76.355598 88.401199
-82.524300 -128.070007 28.218300
-80.993797 -124.552002 25.960400
-70.800499 -74.129799 50.025799
-67.640198 -81.569099 61.315300
-68.775703 -57.297600 47.856499
-67.763603 -46.196602 58.299198
-68.796501 -64.841797 51.050800
-81.516701 -116.138000 52.062901
-68.811203 -95.342201 53.941299
-64.715401 -132.893997 72.038902
-81.161400 -120.433998 12.678400
-81.625298 -126.358002 64.730499
-71.969803 -80.976303 60.228199
-72.901802 -106.547997 37.068298
-50.433998 -124.892998 41.236000
-49.815701 -56.029598 64.806000
-84.577797 -115.235001 38.199799
-65.678299 -40.174599 44.813400
-59.003502 -62.595299 64.057297
-37.309101 -134.865997 47.029598
-39.040298 -134.848999 45.877399
-81.819702 -125.806999 28.122999
-72.983803 -49.248299 68.793404
-75.946198 -107.440002 32.815102
-76.394997 -127.588997 4.436120
-63.097698 -67.905800 55.044102
-80.635597 -135.695007 2.795700
-42.958500 -138.029007 40.054699
-39.927200 -134.848999 49.071701
-64.245499 -112.294998 78.198799
-79.817703 -122.169998 -16.142300
-96.360199 -137.600998 49.970001
-85.744698 -130.412994 62.479301
-47.707401 -111.611000 66.892899
-86.330704 -127.689003 36.040298
-63.082298 -63.024399 52.322399
-77.600800 -61.092602 48.646400
-36.526798 -78.506401 89.767799
-51.973000 -138.731003 48.466099
-84.300003 -138.985992 39.680000
-96.249603 -134.735992 43.554600
-67.043701 -128.287994 23.918600
-77.852303 -117.982002 9.923730
-94.322502 -137.669006 41.561100
-64.427902 -45.867802 54.169102
-75.964798 -121.274002 17.199301
-81.757202 -104.483002 14.288400
-69.461403 -101.176003 45.376598
-88.304100 -110.806999 -0.889215
-66.286499 -47.417900 44.563702
-52.001801 -131.429993 66.706596
-59.462399 -93.784103 68.623100
-72.564796 -109.233002 37.110500
-75.636597 -108.458000 51.701900
-82.869202 -130.830002 7.607630
-65.957100 -104.472000 76.654503
-55.485401 -124.807999 35.251900
-57.336102 -60.611698 63.271500
-64.078300 -39.562302 46.550598
-74.848099 -58.593102 52.092499
-72.139603 -92.202400 51.237099
-75.462097 -58.644501 61.830299
-75.817299 -116.716003 73.271698
-95.283699 -133.485001 42.832600
-82.978302 -107.397003 7.766230
-50.675201 -134.882996 35.527100
-71.239700 -68.246300 50.324799
-42.982201 -81.671402 87.355301
-64.667503 -46.579201 58.114700
-43.254902 -137.384995 48.995399
-83.837898 -127.232002 5.362870
-53.584801 -61.066898 65.184700
-90.301102 -120.293999 38.947701
-81.237999 -103.957001 19.859301
-78.719704 -131.917007 9.423530
-72.568199 -112.453003 24.363899
-57.651199 -124.779999 30.311399
-46.869400 -75.742897 72.900902
-76.040604 -128.960999 6.637410
-67.202599 -45.933800 58.090099
-63.486900 -50.524899 65.089401
-52.214600 -138.852997 42.704601
-66.311096 -137.162994 88.488899
-37.858101 -80.799004 87.512901
-59.532001 -104.073997 58.245098
-38.066200 -72.038696 80.785698
-77.786903 -117.537003 -15.738500
-84.985497 -119.653999 32.012402
-44.820099 -75.069702 70.052498
-85.228500 -123.318001 6.958360
-71.386299 -103.447998 56.614101
-89.482399 -131.014008 -11.706800
-50.205299 -129.449997 67.285400
-73.858704 -120.573997 74.663696
-79.733704 -114.734001 35.581600
-84.342400 -140.136993 42.085300
-81.155899 -108.212997 8.270550
-67.911400 -50.706100 65.373497
-61.673500 -85.188698 55.489399
-67.189598 -48.503700 64.009300
-52.829201 -117.142998 47.646198
-64.393799 -139.242004 84.573303
-76.805603 -110.864998 36.476200
-51.175400 -138.472000 48.778198
-74.827400 -54.942799 54.526901
-62.878899 -102.080002 43.149101
-40.071899 -71.767899 76.539200
-63.813400 -47.610600 60.205200
-76.381699 -124.703003 -15.777200
-65.058899 -49.319401 63.851200
-50.370998 -66.613800 64.250198
-87.664398 -106.475998 14.080600
-61.545898 -111.643997 40.460701
-78.064301 -119.757004 16.099899
-74.327003 -106.975998 39.493099
-83.023003 -131.906998 -2.056970
-50.877899 -130.141006 35.596802
-67.586197 -135.910004 84.690903
-62.654999 -136.871002 77.199097
-76.408897 -129.117004 4.362640
-86.965599 -138.735001 48.900299
-59.605999 -90.375702 61.631802
-89.447304 -105.275002 5.048940
-37.436699 -137.029999 49.170101
-81.446602 -111.364998 29.341900
-72.942200 -135.018997 24.292700
-68.514397 -45.583000 60.510300
-60.348099 -138.014999 77.871399
-74.371201 -129.186996 21.972401
-40.724998 -62.512299 66.587196
-46.419300 -67.802002 70.951202
-77.052803 -76.473198 48.804001
-74.958603 -133.744995 69.085899
-37.591702 -73.263298 78.437897
-77.083099 -125.894997 -7.912870
-57.962601 -49.551300 56.025902
-89.044197 -132.216995 46.251499
-95.407303 -140.220993 49.676201
-76.098503 -107.732002 32.795200
-72.596100 -133.235992 67.741997
-87.966400 -120.680000 57.716999
-46.821098 -69.767799 73.152000
-77.409401 -117.764000 5.366350
-61.205399 -111.438004 38.941799
-82.403000 -117.599998 43.094200
-49.796501 -102.417999 61.469898
-71.589401 -131.537003 23.649200
-93.581497 -129.100998 42.309399
-66.034897 -136.996994 86.312302
-77.647697 -128.567001 1.969770
-62.914001 -124.555000 25.667999
-41.242599 -70.118401 76.609100
-61.222599 -50.958500 65.620399
-89.530296 -108.841003 16.566799
-53.238602 -67.190102 56.703701
-51.091301 -130.485001 65.217400
-71.096001 -99.335503 64.214699
-72.487099 -88.684097 57.481899
-81.894203 -138.041000 48.187000
-46.931702 -123.856003 65.636200
-52.958000 -116.906998 35.189899
-75.893501 -76.290199 49.306900
-50.056499 -59.895699 59.217400
-77.900299 -124.139000 -19.603800
-68.292603 -113.279999 37.026600
-71.751900 -102.517998 43.504700
-66.333603 -125.315002 75.748497
-58.681702 -99.981697 74.418701
-79.635498 -127.752998 24.561800
-76.364899 -126.668999 1.853530
-50.269100 -132.442993 52.157700
-55.506802 -138.934006 41.947800
-76.027397 -110.165001 33.735901
-66.754799 -140.345001 43.327099
-86.989098 -111.529999 -0.068608
-40.391800 -133.621002 52.277401
-76.945999 -117.750999 14.542300
-69.696800 -95.376602 53.870701
-65.276703 -47.950600 45.400398
-46.763699 -130.548004 46.118801
-87.398201 -128.496994 -12.616500
-49.364899 -117.192001 38.232700
-79.970398 -100.140999 53.733398
-61.984600 -91.967201 56.299900
-61.862099 -67.070900 57.050701
-76.307503 -125.850998 7.048350
-61.458401 -130.082001 74.742203
-83.924202 -128.076996 45.570499
-68.490196 -121.710999 23.564301
-68.934097 -101.320999 55.249001
-59.049702 -64.885300 55.729198
-73.026604 -61.520000 60.089001
-87.397202 -120.535004 58.743099
-74.742203 -62.665199 50.699402
-62.108398 -135.455002 77.734100
-58.410801 -58.389099 67.171700
-37.960701 -136.653000 47.602600
-64.145401 -74.402802 56.977100
-70.416496 -49.673901 69.014603
-45.007000 -120.696999 63.007702
-95.605301 -140.434998 49.713100
-75.973396 -52.556801 65.995102
-79.000000 -61.557400 49.727501
-43.997799 -118.313004 66.428596
-73.281998 -83.577301 53.452099
-72.729301 -106.595001 71.599197
-59.731998 -104.609001 77.498299
-58.547699 -96.162903 70.640503
-48.522202 -74.885597 60.891499
-52.048302 -139.149002 45.333599
-71.022202 -100.762001 50.745399
-68.881798 -113.962997 35.479301
-86.871002 -114.466003 39.535400
-45.788700 -72.271400 64.680801
-76.809998 -129.184006 2.290770
-65.409897 -43.463100 50.114300
-37.662998 -73.459099 81.650902
-73.690697 -131.617004 69.700401
-60.731400 -103.552002 50.881699
-77.887001 -119.149002 -16.948900
-56.177898 -112.775002 50.724998
-55.719501 -111.044998 76.254601
-81.471100 -128.912994 -2.204350
-87.209396 -117.403999 42.625801
-39.559601 -135.080994 45.437500
-74.587601 -75.806099 54.685699
-76.117996 -56.895699 66.848297
-54.084202 -107.682999 48.939201
-68.254097 -81.685402 61.284100
-49.159401 -113.776001 67.349701
-59.078602 -50.530300 54.370701
-61.412899 -139.813004 59.066502
-84.887703 -117.855003 0.627280
-77.198402 -129.531006 1.999350
-43.641701 -119.017998 65.773499
-34.714699 -85.009300 84.906898
-61.377800 -137.792999 86.301804
-51.008900 -115.304001 70.843803
-88.024803 -106.574997 12.031300
-90.608803 -128.729996 -3.375500
-78.928299 -118.573997 11.755900
-58.868000 -94.750801 68.906998
-80.329803 -103.805000 20.805901
-54.421600 -132.604996 35.016899
-61.034100 -63.838299 64.886703
-72.879204 -114.934998 75.928902
-46.677898 -114.988998 69.620003
-63.476101 -133.619995 78.618797
-66.454597 -46.150600 56.898300
-65.095001 -77.310997 59.305302
-87.283096 -138.705994 49.970501
-31.376301 -75.181801 94.454597
-78.187897 -69.446297 47.435200
-52.404800 -131.578995 70.403397
-77.543297 -118.482002 -16.929300
-67.247299 -50.036400 63.027100
-76.497101 -127.293999 -11.728100
-71.007698 -101.814003 43.445499
-59.430698 -137.807999 65.823601
-44.521599 -81.033798 80.466301
-65.151901 -133.677002 83.226402
-69.773697 -102.233002 55.701900
-63.127899 -49.403198 52.367699
-48.296799 -106.196999 64.018501
-83.872597 -129.781006 4.856680
-66.311996 -136.770996 69.568100
-53.146099 -114.866997 54.626801
-72.494301 -129.800003 68.661400
-85.148102 -120.003998 32.537498
-49.409901 -58.161598 68.127800
-79.509903 -111.933998 36.714500
-42.494801 -81.255203 88.472198
-61.793499 -114.172997 33.414600
-41.023300 -62.519501 68.657600
-77.078300 -111.953003 42.171700
-75.943901 -140.442993 52.004002
-60.292599 -107.317001 48.472099
-81.343697 -130.057999 -14.107400
-63.893600 -105.581001 78.116798
-83.122597 -119.023003 57.609798
-79.367798 -106.971001 46.540100
-87.711098 -106.344002 4.619680
-74.012604 -82.170197 52.496399
-55.262001 -121.427002 34.357700
-75.738503 -109.828003 25.077101
-31.819700 -75.453201 94.062698
-63.680599 -64.977303 52.603500
-47.821602 -138.156998 55.290401
-61.287498 -51.144699 65.901604
-67.326401 -105.723999 76.644501
-34.101299 -79.444702 86.246300
-68.435097 -139.429001 83.269501
-46.023201 -77.204597 74.760300
-42.765598 -76.911201 82.913696
-48.872002 -123.185997 59.123699
-82.001297 -131.307999 48.851700
-76.811501 -104.883003 56.197102
-76.635002 -134.554993 25.504499
-59.568501 -100.019997 45.636902
-78.360703 -112.390999 33.825699
-81.489998 -108.896004 25.747499
-58.969799 -102.136002 73.436798
-82.512299 -115.820999 31.892900
-88.877701 -123.511002 43.140499
-90.205498 -127.317001 58.563801
-76.843597 -116.878998 57.243099
-85.860298 -127.240997 -2.384330
-40.310101 -71.406898 82.883102
-65.662003 -132.414001 76.003403
-48.248100 -74.581802 60.632000
-93.423401 -131.720001 43.497601
-70.226303 -102.832001 58.993099
-85.031799 -134.436996 36.981899
-74.146896 -106.903000 39.681198
-78.188400 -125.078003 0.598044
-71.490997 -99.208298 46.610100
-49.007301 -117.444000 38.757801
-76.320801 -125.570999 20.873100
-55.783401 -116.126999 32.857201
-76.249702 -121.167000 4.929900
-87.800697 -126.424004 43.128700
-87.811401 -126.806999 -2.043310
-62.742901 -126.654999 74.617302
-63.336700 -102.633003 42.436401
-72.403603 -107.011002 37.991501
-79.013702 -122.762001 -18.840000
-76.250397 -56.674099 66.851501
-68.763496 -54.664101 64.211098
-57.674301 -66.491898 65.306900
-49.684299 -104.220001 58.379799
-76.060997 -126.955002 -12.194300
-75.224602 -57.340401 66.391998
-48.610100 -60.081902 70.254799
-77.663696 -116.566002 3.551670
-71.351700 -140.149994 59.403801
-84.078903 -104.267998 16.192200
-57.964401 -93.357101 61.130501
-61.674301 -93.241302 70.884903
-74.678703 -51.715900 69.719803
-42.474701 -78.738602 83.693298
-60.206200 -104.677002 53.022400
-83.982498 -107.767998 22.138599
-65.097099 -123.378998 76.637497
-79.369102 -122.064003 10.640600
-53.210400 -112.073997 73.873199
-39.372398 -135.934998 42.684502
-49.383202 -118.350998 37.945702
-65.786598 -72.630203 51.219700
-57.310699 -117.503998 77.555801
-35.604900 -76.736504 87.621300
-59.820202 -89.728600 62.493198
-71.683701 -98.489700 43.454800
-73.835503 -103.768997 48.274799
-36.476101 -82.025200 80.514900
-71.318398 -72.658798 50.017700
-51.844501 -68.086098 68.072701
-41.589199 -60.820400 63.679298
-49.467800 -126.089996 59.477299
-74.723396 -108.167999 55.886501
-75.913902 -133.195999 25.458300
-46.426201 -74.856796 63.753502
-73.176903 -85.785202 53.752399
-48.042000 -73.741096 59.730099
-78.032997 -118.438004 -16.056999
-55.686199 -62.380299 57.718700
-93.257896 -127.579002 41.510799
-79.517899 -120.211998 0.168437
-52.102100 -67.515404 68.198502
-46.785198 -114.727997 61.038898
-49.470501 -106.416000 54.827301
-41.475101 -75.134804 84.735703
-55.213200 -116.286003 33.743500
-77.298500 -66.056602 48.174801
-61.930401 -67.067703 55.888901
-48.889500 -113.165001 54.987701
-81.693001 -130.981995 -12.277300
-66.973900 -103.276001 45.645699
-52.391201 -119.397003 47.666801
-76.516701 -116.353996 -16.134199
-68.437599 -56.957699 45.423302
-71.244102 -103.143997 56.029598
-66.206398 -48.322399 61.659599
-51.871601 -127.944000 42.569901
-66.442497 -119.662003 26.170799
-70.633301 -110.334000 35.387199
-78.559898 -122.494003 -9.459660
-65.296402 -85.393501 64.133598
-48.831699 -76.857300 62.781300
-75.903397 -121.321999 65.998901
-50.141899 -115.697998 68.445999
-69.910599 -123.726997 22.256500
-41.375599 -137.466003 45.177898
-77.332001 -126.091003 -7.837300
-53.290298 -101.771004 61.164101
-74.751297 -54.491402 54.634201
-69.333504 -135.035004 84.484901
-79.462402 -120.901001 59.507900
-82.178703 -130.882004 -11.359100
-89.786697 -129.567001 -10.883100
-40.223400 -74.338997 73.608597
-62.442501 -140.126007 46.125198
-74.006897 -102.398003 50.848900
-80.814003 -130.996002 29.487499
-88.203201 -134.798996 0.500890
-77.160301 -102.019997 58.189301
-71.427299 -92.622597 51.115601
-76.948997 -118.517998 66.413101
-75.629402 -128.528000 22.221901
-70.521599 -57.097000 63.943001
-41.505901 -136.106995 56.226501
-62.749001 -102.235001 42.847801
-60.856300 -62.733299 64.845497
-78.916100 -113.516998 35.363499
-39.131001 -82.563904 78.385201
-50.033401 -135.488998 60.559601
-48.817902 -71.692802 66.773598
-74.340698 -113.347000 75.140198
-45.147999 -68.565498 72.449600
-62.786499 -60.636299 51.903599
-72.823997 -106.424004 70.839897
-62.006802 -52.272400 66.605698
-57.766201 -49.772099 58.685200
-78.029602 -123.898003 0.249296
-62.355400 -48.801300 60.917900
-43.715801 -138.205994 48.037498
-56.170601 -106.251999 73.654900
-87.591400 -112.347000 21.389000
-39.596100 -137.455994 54.917702
-87.165497 -126.928001 43.245602
-42.682201 -81.531601 84.863998
-83.924103 -100.954002 16.682199
-47.390400 -70.133904 73.819801
-61.026699 -117.138000 29.385201
-74.198898 -121.370003 -14.097700
-73.335701 -57.747501 64.145599
-54.316299 -61.320301 62.901199
-71.630699 -77.373901 59.625301
-72.528702 -106.416000 37.743000
-37.232899 -80.572998 87.976898
-84.567101 -118.602997 55.996399
-88.380402 -110.328003 20.676800
-68.290100 -57.005199 45.333099
-38.791599 -72.866699 83.073303
-86.108902 -108.532997 21.385300
-73.996803 -76.557800 50.468300
-49.288101 -72.741699 57.777699
-72.799202 -116.290001 -16.026800
-68.749496 -51.356098 62.384399
-56.249901 -106.698997 49.697800
-67.467003 -49.733299 63.607601
-57.463501 -98.326302 60.181900
-63.961700 -57.130199 51.251900
-54.971699 -113.064003 51.442200
-67.445900 -117.227997 27.958300
-39.887699 -137.738998 55.561600
-64.978996 -126.309998 75.069801
-52.277802 -118.978996 34.517799
-42.703400 -72.287300 72.644203
-52.057701 -126.688004 42.914600
-77.691803 -108.010002 11.598700
-49.298000 -105.527000 56.609798
-65.251900 -50.224998 64.546997
-90.726997 -113.689003 8.633200
-48.447102 -112.053001 41.895802
-79.616600 -135.220001 5.789240
-50.586800 -65.333099 63.726501
-76.890900 -108.464996 13.635500
-94.569901 -138.837997 44.226799
-85.333603 -108.093002 4.933700
-67.711800 -77.370903 50.495800
-59.517601 -96.991302 72.127701
-50.586102 -136.005005 61.912899
-48.379601 -112.681000 41.618099
-79.631599 -106.217003 46.957600
-80.217201 -110.066002 37.368099
-76.814697 -104.264000 29.473301
-61.432899 -86.787399 55.925598
-82.929497 -125.306999 65.256897
-64.667702 -48.972099 55.412998
-49.278099 -116.037003 62.556099
-54.334801 -139.169998 59.098900
-69.015404 -98.773903 55.603001
-65.227203 -117.405998 27.816900
-56.547298 -57.189499 65.908798
-54.362000 -109.629997 37.792400
-81.639999 -116.731003 53.800800
-52.147400 -126.824997 43.132198
-63.925999 -75.922997 57.807800
-71.529701 -84.599602 61.041100
-49.608398 -126.205002 47.574299
-50.892200 -125.855003 46.209202
-85.243301 -118.538002 13.310000
-79.361900 -121.541000 17.399500
-65.116699 -53.863499 49.143799
-45.022701 -71.825996 76.302696
-67.201103 -116.100998 31.283001
-80.669701 -116.263000 37.406200
-49.544800 -56.115200 64.020103
-71.049797 -135.878998 74.816101
-61.469101 -101.912003 43.704899
-68.579002 -60.792599 64.043800
-77.125801 -116.879997 7.734310
-92.809303 -126.125999 41.316502
-35.112499 -86.105400 81.847397
-49.853100 -109.755997 40.603802
-89.228897 -107.815002 7.411210
-53.696602 -61.657902 61.921200
-67.242203 -125.105003 75.218102
-83.454201 -103.060997 15.656300
-66.903999 -103.171997 45.881599
-74.967796 -109.077003 52.199299
-68.009804 -136.300003 90.477303
-73.889900 -80.469902 53.577702
-45.875702 -71.634903 75.986000
-75.194901 -81.551201 48.622299
-60.717201 -132.638000 72.571701
-80.829803 -124.426003 10.657500
-65.922798 -48.453499 61.802700
-60.814800 -111.766998 45.631901
-57.505501 -49.731499 58.159801
-76.426804 -130.113998 64.667397
-42.356800 -81.963997 83.364197
-86.815102 -111.393997 0.769975
-78.714699 -102.681999 27.199400
-72.252296 -92.134300 52.537701
-56.285801 -53.526402 59.277100
-74.789497 -58.930901 51.620800
-75.886101 -132.376007 63.953400
-77.125702 -138.970001 54.493401
-55.247700 -105.575996 73.460297
-75.866203 -109.872002 14.523200
-80.244102 -127.315002 25.441601
-66.607597 -140.104004 50.530899
-81.065903 -109.869003 39.012001
-80.779404 -122.504997 -11.664300
-38.816101 -74.508499 87.231102
-76.806999 -124.966003 7.738680
-64.226402 -46.304699 55.094299
-75.126404 -80.308197 49.326698
-49.317200 -125.024002 52.773602
-70.118797 -68.193001 59.520199
-56.495899 -131.018005 35.038200
-74.859100 -82.759903 48.545799
-81.737099 -137.906998 48.701900
-75.539200 -63.914001 51.364300
-57.254398 -95.541801 62.949402
-70.573303 -50.553799 64.278297
-49.314701 -128.151993 63.456299
-67.919502 -139.279999 29.960899
-88.056999 -110.258003 0.364397
-61.500000 -138.110001 88.138100
-87.295998 -115.088997 16.702000
-66.899696 -47.784599 51.248100
-80.991798 -134.684998 0.605704
-72.187103 -129.272003 21.998199
-53.523899 -67.922401 56.100498
-69.315697 -96.034401 53.795399
-53.267101 -66.778099 59.621899
-52.290401 -117.514000 74.164299
-44.434200 -81.530602 81.210602
-91.784500 -128.199005 42.663700
-77.667297 -115.862999 10.108100
-50.258999 -71.468300 66.750999
-41.759602 -81.469597 87.959000
-57.402401 -51.842300 57.403900
-64.697403 -48.865700 56.079102
-73.918198 -59.137199 59.400101
-90.662697 -128.794006 -8.869910
-89.217003 -140.358994 53.544201
-81.585800 -137.598007 48.564999
-65.470703 -49.269100 64.187798
-62.008400 -67.418701 59.682201
