22.225500 74.318001 31.990299
-28.530899 -19.409300 128.403000
-59.362499 -57.838100 130.158005
-52.174000 41.454201 36.288502
-25.827801 -22.287201 159.539001
-10.176500 -45.188801 3.349080
18.859501 -39.153999 52.487598
86.791603 66.421204 32.272499
-37.266701 -23.584400 132.354996
-33.479698 51.736801 26.096300
-44.546700 54.052101 53.366699
-11.266700 64.819702 26.346800
97.171402 38.881001 39.362499
27.233299 -22.078699 5.995980
-37.877800 54.688900 73.006699
-72.615601 -9.100960 88.008598
-3.748320 -7.589120 1.099050
-7.766740 -6.820540 99.711403
85.316803 68.258301 21.114799
69.861397 55.873501 47.233002
65.985001 24.290600 5.315050
-70.665100 17.212000 63.204300
-21.461399 46.001301 13.803000
-42.016701 -21.507700 123.282997
79.249603 15.691300 45.623402
-63.644600 -36.539001 57.914200
84.512398 21.931299 43.833500
-31.766701 18.551001 11.490300
79.485603 61.435600 16.694500
93.803802 46.103802 40.993900
-52.387100 21.053301 26.473101
-29.911100 -18.773800 99.383598
85.275398 40.677601 49.824299
-66.196098 -35.547798 90.023300
59.264999 3.674060 15.318100
14.722700 27.020399 87.074097
117.010002 58.775799 26.558399
84.787399 58.429501 15.697200
0.054062 -38.690399 25.248301
48.733299 65.181702 52.935001
-22.766701 43.590599 2.627390
26.032801 -35.235699 64.288002
-31.579800 58.498699 34.693298
-47.604099 -48.198002 129.044998
-7.713640 -19.077900 16.622999
-55.664200 -6.014510 155.076996
80.605301 56.935600 54.063000
32.608299 12.187400 0.740814
-29.495800 -17.992001 103.027000
54.702400 -8.564380 19.995300
-25.354000 9.296380 147.473007
95.983299 68.223999 20.781900
54.233299 44.755402 59.355099
-52.423100 -3.507350 136.147003
63.740002 60.671398 48.012501
-5.664570 54.041401 7.697990
-30.766701 -20.628799 129.113998
113.233002 36.725800 22.822901
72.372299 3.474470 26.781700
22.733299 73.519997 44.384701
-56.725201 18.893499 88.384201
11.337400 -33.996899 82.178101
-14.216400 62.399300 24.251699
73.053398 54.167599 47.555801
-3.766740 -4.853950 -0.024765
-57.425499 -24.811100 152.940002
-30.766701 17.875700 12.145300
50.980801 3.223080 71.469101
68.480103 52.996201 53.395901
-38.266701 34.404999 12.857200
91.733299 68.849503 30.480900
-28.059601 61.802101 66.995697
-39.766701 41.830502 0.975128
17.983299 69.855797 23.162201
-49.645199 -14.200100 167.197006
-56.214500 25.040899 30.293400
40.733299 -4.075140 0.877205
111.233002 27.198299 30.680201
73.733299 69.246696 31.286900
59.340900 2.663990 15.789800
-19.516701 45.372601 5.642000
-56.399399 -9.039340 117.237999
62.883499 -6.458030 52.828499
78.233299 68.321503 24.429701
-33.234001 17.353901 2.835580
96.733299 73.806900 23.706699
-64.743500 -7.453830 101.429001
-39.333000 -42.629700 76.142197
49.483299 49.567699 2.723120
65.331703 -0.075981 59.050800
-17.758900 2.217370 147.425995
16.333000 -27.394300 1.492680
45.392399 -9.332440 8.800010
84.197197 29.616600 52.526798
49.233299 64.053299 15.976200
-8.266740 -33.872799 23.602501
70.765602 6.987120 58.113098
-18.346201 -25.235001 4.395550
-49.766701 26.383600 90.351997
-71.547203 4.023770 70.333900
5.630870 -28.143900 15.741500
-7.266740 5.527050 97.726799
-61.909100 -34.834900 54.209099
12.235800 10.590200 93.519997
27.779499 61.857700 63.406200
-48.266701 -39.141602 88.250000
-42.740501 41.344799 7.241980
-56.793098 -10.841800 139.695007
11.233300 -36.373600 22.369900
18.477501 61.373901 10.328900
-11.254200 42.803200 89.773804
37.745499 58.981998 60.018002
71.595200 55.179298 45.507801
-38.516701 -24.682699 170.057999
87.813202 20.843500 38.736801
50.623001 -0.939262 2.960950
46.233299 -1.070640 0.922157
-68.546204 10.556400 74.876701
90.922096 59.473499 34.178799
-43.889198 28.221901 1.008980
-34.766701 26.549299 95.860703
-42.301899 17.460899 3.251950
-3.619470 -21.466900 15.443200
67.888298 -1.388810 53.473400
-22.016701 64.081802 66.699699
9.178710 -42.206600 58.751099
-6.828340 -39.846401 -0.449379
56.336800 8.102860 6.982730
52.284698 -15.180700 25.957600
-58.146000 -46.645699 138.042999
0.731895 58.182400 10.603000
80.490601 61.146900 37.510799
-36.132500 49.187099 2.848140
47.936100 -11.948900 67.313103
-23.813700 52.885899 82.940002
-8.770790 52.159698 8.525240
113.098000 59.476898 23.088699
-53.516701 -33.841000 99.741302
-19.704399 -18.578699 134.600998
-15.766700 -48.243000 60.466599
-67.801804 -38.579399 72.962502
80.532799 23.281700 51.367599
88.733299 72.334702 22.153500
-50.782001 2.185170 139.811996
56.614799 56.622601 9.801240
54.223598 1.928420 4.923410
59.249599 -6.305550 23.699600
-7.589820 -42.299500 10.709100
47.830399 68.139999 18.820400
-11.766700 -41.374401 80.209503
-51.753601 5.740560 25.572599
10.688600 -43.821800 41.293098
17.636299 61.987801 11.936400
-45.836899 29.051001 1.353020
19.224001 49.877102 77.845001
-20.266701 47.519100 15.297300
-30.329000 3.784970 99.571999
22.691601 -37.291901 61.808300
-5.031600 -43.710899 72.978104
4.591640 -16.615000 95.201103
75.157204 26.710501 10.776300
-42.332699 18.421301 5.006260
24.520399 17.977600 87.492104
6.233260 -39.706600 78.441299
-26.165800 -26.868099 155.207001
36.029800 40.296299 73.075500
22.278700 -25.072001 4.779870
-14.323200 70.176201 51.812698
-52.494801 -55.369701 130.908005
-27.266701 -41.107800 84.338699
15.479300 52.860100 77.336700
-23.766100 9.064110 131.626999
-35.766701 -35.131500 35.191601
-61.055302 -14.794600 149.451996
-22.766701 46.345001 11.632600
-6.598010 -36.226601 24.665199
46.077900 -22.529100 45.444302
-27.886000 -40.814400 38.539600
-47.290600 31.554701 87.084297
-17.731701 65.577904 34.951599
-34.766701 48.462502 2.240300
-11.288500 48.178200 5.660190
-31.676300 -33.647499 151.520004
-52.257702 -53.006401 126.495003
32.444302 -2.673830 82.511902
11.295400 -40.117199 72.898804
-37.265202 52.049999 76.847702
-13.783600 -46.091801 70.447197
58.772999 11.409900 6.776080
-22.303900 64.237099 37.366501
-5.924880 -4.186790 1.193870
38.242901 -19.391800 71.351898
58.233299 30.090099 70.050903
34.179001 36.670200 73.593300
32.733299 22.886801 81.882500
-47.299400 -35.784302 157.701996
89.733299 68.032799 31.071301
65.199600 -2.648590 49.630100
38.545799 63.631699 14.830600
23.233299 53.536900 74.354103
-72.944801 -15.644400 92.195099
60.858299 71.609299 30.040100
-57.914200 -7.654100 153.123993
-14.504600 26.061001 96.531700
-17.266701 65.598503 33.900799
26.156601 -21.132500 2.690380
-25.425800 4.475750 116.956001
81.983299 62.751499 17.832701
-23.587500 1.983520 117.912003
-28.634501 -15.159800 100.085999
-41.514301 -36.973900 155.763000
49.364899 47.299000 61.918701
15.890300 -29.894199 1.653440
-9.500730 61.888100 75.881302
-46.805000 29.460300 8.795720
23.590799 58.770599 68.259003
64.233299 31.974501 63.682301
28.159100 -34.315102 58.473801
-4.266740 72.427399 45.752899
-18.708799 -22.686899 139.151001
56.340599 39.807701 62.812099
12.233300 -33.685001 81.985001
-49.141701 -41.718601 76.660301
-42.310902 50.615700 74.616402
-28.460899 7.893750 118.245003
-51.682598 14.324700 26.123600
62.233299 27.040100 2.007460
-34.766701 -34.588299 33.927502
-46.668900 36.258598 2.964240
83.959297 32.435902 57.107399
-17.753799 2.775170 145.169998
20.233299 67.211403 59.765999
88.658600 34.957600 13.883600
-17.360500 69.566002 45.979401
-22.563000 -11.807400 165.279999
-34.282001 -32.945202 91.836700
-47.791500 -50.567200 130.699997
-33.766701 10.265100 149.582001
-53.850201 -29.048599 158.110001
53.273800 -16.432199 36.190102
-39.876701 -36.567699 153.404007
-46.225498 -38.526001 54.261101
78.744102 36.797798 8.885760
34.233299 69.003403 20.533100
-29.882299 16.260700 99.883202
37.299000 57.583199 8.048500
-32.703602 -43.505001 79.308403
42.733299 29.286800 74.830902
-63.139198 -47.695702 127.625000
-25.011101 63.876900 64.619698
69.233299 49.985600 60.578800
-53.724499 41.558899 73.207497
46.248402 12.230100 75.967300
-47.073200 50.396999 62.499401
-40.723301 -24.759501 113.827003
-52.634998 -9.136000 28.595900
-62.138802 -6.872400 38.977798
13.523200 -42.181198 39.176498
-33.645401 -22.622200 106.001999
8.800340 -37.726700 -0.620461
-32.445301 7.968690 154.880997
-45.511501 43.141701 30.124100
-19.415001 -24.537001 140.149994
73.518204 23.360300 12.107600
78.447502 14.203700 54.057400
-37.516701 -18.742500 23.543200
-30.516701 -31.459000 138.796005
65.794296 61.416401 43.454399
100.483002 25.126801 24.542900
-76.049896 -28.326900 74.209702
62.233299 47.807499 58.682899
42.733299 74.677696 30.954800
43.483299 74.360901 29.103701
-32.511398 50.595200 24.476101
51.948200 -3.363770 5.820790
52.088799 7.176870 2.156070
-53.329899 -19.532200 160.882004
85.801201 16.047701 34.244099
3.985860 -35.125500 21.497101
18.733299 -18.658400 -0.250961
72.736702 27.498600 8.571600
100.896004 50.450001 35.396999
21.746901 75.126602 35.634201
20.233299 74.808403 35.000099
45.733299 29.702200 73.789200
46.695999 50.120201 2.452690
114.733002 57.625198 28.720200
-54.962601 -5.364090 119.257004
-20.495300 -1.425490 123.890999
74.740898 68.571503 32.034401
-1.770200 -41.791599 10.026000
-60.734299 -55.991402 131.798004
-2.257600 -18.844500 97.144402
-53.790001 3.059050 106.236000
-20.784500 60.434601 75.492203
44.238701 46.807400 1.685630
116.233002 59.178699 25.310600
-66.588799 -16.429300 48.052101
18.233299 69.605698 57.743900
-31.253401 -45.185699 74.655602
12.273500 -32.202000 83.410103
-12.946800 -36.831299 1.955570
-2.287810 42.401001 88.507103
-16.868500 -22.716200 2.446580
51.779598 -16.705601 50.332001
-56.370201 -4.410810 142.912003
-43.008202 -33.715401 39.924500
-41.295101 -16.330400 171.408005
9.233260 -42.343700 -0.640305
-59.252701 -33.772900 141.667999
-43.182701 23.569799 95.624397
-77.422501 -23.209801 75.252602
-10.820200 -42.702099 4.099650
-30.766701 -22.702700 97.909103
-48.681301 -51.201199 132.046005
71.233299 38.660900 61.758598
39.398300 -27.113501 37.289600
-58.337399 30.406500 76.595200
-37.391701 -21.143101 126.560997
-32.766701 -33.423199 140.667999
78.673203 8.413400 34.227501
-32.439499 -21.082100 129.223007
-18.858000 -48.002102 62.436199
37.570099 18.976400 79.945801
-52.462502 19.813000 91.886002
10.983300 73.027702 43.514198
71.233299 52.850399 59.564400
25.837799 50.027802 74.191597
48.733299 58.376202 9.923480
-26.944901 -9.462250 104.008003
-2.675570 -10.700700 1.790110
-34.766701 10.779900 147.906998
-28.751101 35.451801 91.297897
7.983260 68.915497 63.021000
-21.797199 -17.503000 161.479996
111.322998 62.479801 22.798100
-32.890099 -21.944000 101.208000
-7.266740 43.912800 89.052101
-44.630600 17.877399 23.511400
-33.414700 6.946160 106.767998
-59.711899 21.065701 32.721500
-18.386400 -38.880798 86.120201
59.270000 -10.211400 51.491699
-58.898300 -26.016300 145.572006
-0.194931 -43.561199 65.693703
-47.616100 -49.182598 129.328003
-29.320499 15.446700 11.157700
-51.586899 44.151199 72.828400
8.233260 -33.146000 -0.734329
19.508200 -11.984100 -0.080749
-65.753998 -38.409500 84.253502
-30.793900 -19.998600 107.787003
3.743100 -31.791201 86.522102
-43.386101 53.968300 61.372002
-11.287900 69.215599 38.714100
-8.766740 -34.963902 88.100502
-23.766701 64.549698 43.272999
21.733299 25.180799 83.990196
64.277100 -1.106330 24.743200
-72.489700 -5.313850 61.607498
73.742401 29.399000 8.378610
44.363201 63.958099 54.811001
-12.026600 6.104810 1.250710
-45.257900 -30.701500 165.839005
-28.010099 62.472599 60.685600
-38.523800 34.474602 19.666800
-52.266800 -22.667601 136.112000
-71.546600 9.639370 54.561199
-18.018900 -31.011000 2.174810
56.733299 66.106697 44.212502
-8.656630 -32.520901 91.084503
22.733299 21.759600 86.070801
17.955900 -39.647400 56.013901
-13.922600 -36.527000 5.447350
-31.568100 61.780899 57.651798
55.770500 65.764000 49.556000
-6.007900 -3.312390 0.708618
-38.266701 -21.274700 170.977005
-33.763802 8.276660 111.750999
-47.731201 33.331299 9.334160
9.233260 -25.811701 13.261700
-50.837700 -33.069199 158.886002
111.733002 57.118900 29.877800
116.233002 59.852299 25.646099
-13.288100 65.619598 29.086599
59.268902 -11.215900 53.038101
1.733260 -44.435299 6.807910
-49.939201 -23.202999 116.445999
57.079800 -0.386211 65.833504
51.175499 -17.893801 55.136700
86.654701 36.134998 54.021301
-52.296398 -7.436660 133.738007
15.020600 -22.042900 -0.148514
-18.766701 54.335999 82.581596
-10.767600 3.963810 1.519710
-24.770100 -2.640360 98.762901
28.226200 15.073400 85.301498
-0.079239 58.549198 17.827400
-77.378601 -21.166401 80.546799
98.021500 54.365200 34.493900
-49.749802 25.341400 91.276703
-62.969398 29.178400 42.439098
92.362900 25.725000 21.426600
-38.786098 -2.344210 167.977005
-58.589600 37.674000 47.478500
-27.274099 -35.594501 31.376301
-11.848100 -33.764400 90.293900
46.729500 17.456100 75.077698
-6.732270 -20.081100 16.994801
-51.000599 -30.901400 41.862598
-4.266740 55.530300 15.471700
-40.766701 -1.797930 166.944000
53.233299 -9.397580 19.788401
-26.842501 -3.271030 104.259003
-54.571201 -3.238160 118.504997
-41.189098 -40.557400 134.641006
32.502499 54.729599 67.161797
-42.214699 -20.510099 130.089005
7.233260 -11.451500 96.209503
62.723000 70.092499 36.941601
83.374199 54.008999 54.534199
15.194100 67.500702 63.609200
-27.210199 11.587900 138.167999
68.161102 27.310200 62.748299
-60.962700 13.174800 86.788803
-34.586700 -24.754400 99.326797
50.682400 1.683960 71.114799
20.534901 -37.961102 64.995300
-30.245100 62.591202 55.978100
-28.766701 5.172490 158.587006
29.878700 57.286701 3.134730
21.233299 51.261600 76.445297
-7.194250 -38.141102 9.975180
-22.266701 22.902201 0.696594
-7.748950 -37.311699 9.285460
82.268898 50.939400 45.286598
72.750099 1.271880 30.294300
-30.266701 17.797100 99.656898
-21.736601 -1.923040 119.598000
9.233260 -44.567902 -0.580620
-65.166801 -35.124298 57.656700
-35.766701 11.171700 123.431000
-27.766701 46.530701 17.199699
-53.118401 -21.045401 164.063995
-46.769699 51.966801 57.834499
-59.512501 -25.178200 144.020996
-32.209599 -44.848598 53.535702
-0.766739 52.086399 82.116600
4.618870 -30.115601 12.254800
-70.681297 16.907101 64.584198
-20.766701 -47.980301 66.860497
-47.342701 -11.716500 25.704500
-14.746200 -20.001301 19.105400
40.630501 -14.832800 72.177902
-33.834900 -26.926100 96.499001
31.764999 -28.049299 66.987297
-51.769100 -10.457900 132.537003
-2.221240 56.864899 12.448300
-70.411903 9.247040 70.443398
-14.345100 -11.133400 99.598099
-17.766701 15.278800 98.869797
25.906000 -35.972900 58.735699
42.147202 -9.862220 73.984802
45.524200 29.161800 74.512398
-18.596600 3.915230 146.210999
4.765530 29.613899 92.246902
-50.731201 -34.332699 156.167999
17.233299 66.166702 17.166599
-64.671700 22.264601 76.581001
-3.734550 -23.221201 16.403700
53.733299 35.778900 65.971901
90.968498 33.849400 42.538700
-36.300098 -39.812000 45.183102
-26.222300 -4.466470 99.687798
-70.723801 2.923400 52.966202
-23.766701 21.130301 1.624870
6.733260 70.424103 60.428200
33.698399 -18.544901 15.574500
-65.842598 18.249001 42.224098
-14.765700 -21.568100 0.682510
49.163200 48.262299 61.852501
94.983299 71.845200 27.623100
28.622601 -14.048500 81.936096
113.301003 58.448101 28.741800
-10.266700 -24.050400 12.806600
1.278830 -27.368401 12.882400
-27.260799 -23.317600 97.297501
22.890100 -38.678299 45.447498
26.705200 -36.604099 41.931599
5.233260 -26.146900 14.585300
34.745300 -27.062700 63.538799
-54.266701 -42.171799 77.393097
-50.302700 -5.704930 158.766006
7.233260 64.089897 69.936897
50.189800 -19.509399 54.320999
-10.604400 52.110802 10.503500
59.738098 50.384998 55.787399
44.562401 74.667297 36.865799
1.733260 -44.891701 6.606540
-41.783798 40.904999 25.213301
-40.191002 -40.400002 139.244003
-10.146100 -16.046499 2.215290
112.467003 26.720900 26.413300
-69.082901 12.428100 72.930496
57.233299 64.976601 16.504900
-32.757599 33.083698 15.158800
62.233299 46.930099 59.162498
26.983299 73.679199 45.481899
-72.082100 10.286100 59.907299
84.156898 14.156400 31.285601
118.260002 53.164001 24.683399
42.977501 -24.258499 35.841301
-57.724998 -33.499901 144.893997
-24.743000 43.783100 13.888600
-67.277496 16.349199 45.472500
61.231701 30.648701 1.832390
-23.616501 8.083650 147.692993
-2.018640 50.676201 83.177696
112.953003 52.484699 32.015400
35.136501 55.994801 65.307899
65.106201 -3.887480 28.321699
20.742201 56.070000 2.653950
105.070999 51.696499 33.643799
75.213799 9.566280 50.933399
-9.086570 59.628799 19.291700
13.233300 71.654602 56.428699
58.233299 43.428699 61.096600
-44.300499 2.315930 156.539993
110.338997 55.244099 20.661501
89.218201 18.746700 32.654301
49.656799 -13.118800 63.895599
21.462500 43.110298 81.339104
-46.240200 50.702702 65.853302
-52.679901 -16.180300 159.921005
-3.266740 48.508202 84.951599
48.175499 -19.979099 51.179199
-48.266701 -39.734299 59.094898
52.222599 -13.416200 22.757401
-65.633102 20.900900 45.830700
-68.356201 8.253450 76.175797
-36.972801 -25.336100 106.257004
9.233260 66.148201 66.153503
93.233299 34.821301 16.220699
52.733299 73.202797 36.210800
-65.756798 20.167200 45.092400
22.719999 -35.802601 32.233200
-44.277000 52.638599 63.225800
2.233260 -40.798401 77.613998
-19.335600 13.080900 3.581150
-40.266701 7.529520 101.725998
54.069099 37.986301 63.822899
85.702499 34.646198 13.024900
-58.099701 0.134277 103.973999
17.733299 73.777496 54.276299
67.233299 66.911400 38.983601
-35.766701 19.720400 12.275400
39.906601 -18.295700 68.999702
77.215401 8.848630 41.627602
-47.713001 48.903999 51.020901
50.733299 32.812500 70.858902
-55.723900 -34.031200 148.315002
-47.980701 5.025670 122.054001
-42.591499 46.388100 3.941800
5.233260 -41.704601 -0.920197
7.586820 31.896200 90.009300
-27.914301 -6.280690 167.475998
-22.047300 -18.151199 160.709000
-26.054100 -19.645399 130.712997
-53.217602 18.276501 27.335800
-14.270200 18.190599 97.979599
-33.856800 -22.787600 104.494003
56.332802 -2.302580 15.047600
-2.784210 -9.191390 0.716705
13.733300 4.485920 94.084602
-38.305099 19.377100 11.113600
-42.549599 49.115898 32.664001
29.425900 62.083302 59.958401
39.651001 50.892200 67.961502
10.097100 -49.460899 5.687870
12.180200 -43.071201 47.253201
19.483299 67.191597 17.922899
97.641296 29.547600 35.425098
63.233299 49.257900 57.608398
-0.766739 -43.371399 65.019203
95.233299 69.579903 29.732599
-28.155701 9.671050 123.216003
97.733299 27.897400 22.315201
-40.380501 53.190201 38.128899
67.700996 15.508100 62.530102
-52.967300 -16.205999 159.296997
46.700699 -18.143600 63.091000
-70.813599 -3.798420 54.279701
35.326599 14.141300 82.790497
75.204399 9.509540 53.207199
38.733299 70.725601 21.337700
-42.296299 52.299900 72.006599
-49.812401 -30.162201 40.088200
-26.724600 11.244700 133.804993
-34.990101 41.459202 87.824203
-48.266701 -36.249500 94.077003
55.720600 44.694901 60.267200
118.487000 55.325199 25.844500
-37.266701 49.656799 8.268750
68.810997 20.448900 63.154400
-45.487598 46.106998 76.987999
2.358260 60.298000 74.860100
-32.892700 -34.534599 143.496002
-19.016701 46.612499 7.813340
102.233002 54.199299 32.874599
56.248001 14.542800 71.864403
-31.243601 -20.280100 127.771004
94.733299 65.650703 30.885201
9.733260 -42.193298 66.122101
-59.376099 13.462500 32.281399
-30.445000 -29.383699 161.570999
-55.947102 -43.725899 141.348007
-22.482700 2.569100 120.849998
-29.248600 4.962590 99.199997
-30.220699 -5.331110 17.845400
-47.013100 -47.775700 134.740005
-15.766700 -43.826401 78.416702
-3.266740 -46.261799 1.589470
-14.698400 66.443497 67.202202
-22.679800 -17.175400 130.436005
73.765297 14.241100 58.905399
-37.266701 33.459099 13.732500
-7.766740 54.355400 12.335700
0.817459 68.144699 66.680702
-40.895802 17.752800 8.792420
-19.010201 64.180702 68.948997
32.233299 75.298500 35.651100
-4.454240 7.116600 96.562500
15.068100 63.645500 66.846901
41.751801 -25.980200 39.517200
-58.728802 -16.478500 37.830299
-73.166199 -17.902201 91.945900
-3.199080 41.595299 88.983803
-24.641701 42.343800 1.162100
-60.161400 -20.271799 110.046997
-32.869701 -21.871401 103.988998
-44.266701 -21.609501 122.115997
15.733300 20.930901 88.721802
-21.329800 16.365299 4.221820
95.233299 36.701599 16.010900
66.246696 52.005001 53.869701
-74.719200 -8.695420 79.244598
-74.550797 -15.688200 88.470802
-2.082330 -43.764999 68.048599
74.227097 55.984200 53.240501
53.700401 67.059502 45.567600
-30.265100 -23.828899 133.093994
88.547897 19.269199 35.323502
-59.298302 35.950100 46.355900
-56.526501 -33.782398 147.046005
49.695099 -7.046050 8.588090
20.872700 30.789900 82.839104
9.733260 70.869202 58.713100
-9.391740 -47.114201 43.896000
44.111301 -4.069900 1.407370
114.815002 60.856201 25.091299
4.733260 -44.963299 -0.403831
9.654240 -33.379299 19.507601
28.261700 72.402000 26.185900
-4.329240 -42.558102 32.823898
-16.897699 14.007700 98.052101
44.733299 70.563103 22.062401
-12.766700 -34.340302 8.365920
47.394199 9.473640 75.022301
49.232899 50.114498 62.898300
52.233299 34.390900 69.577202
67.768898 1.110600 56.490002
-11.766700 -13.250500 12.750600
27.112000 59.605499 66.400803
-29.763000 38.335201 12.341800
-45.598900 38.341400 2.468480
57.233299 36.192001 65.578598
56.432598 35.096199 66.700600
-39.107201 -41.808498 54.178299
9.191380 25.782600 90.141403
-26.644100 51.006699 19.407101
108.730003 62.850101 21.516300
60.003700 -9.847150 52.345901
-58.792702 34.159100 71.709297
-59.652302 -21.565201 151.804993
-42.200100 -39.395401 144.393997
-45.747799 -47.595901 132.276993
42.733299 55.826099 5.619330
-65.463799 6.102880 82.981796
22.233299 70.525902 54.367001
46.233299 67.567200 49.801601
-14.879000 50.194801 12.887000
-28.886101 -0.692387 102.113998
57.220501 -12.944900 51.833500
13.751100 -42.650700 45.742500
3.727420 51.938400 2.553990
19.917801 -37.937401 34.309700
-35.194302 -23.860600 106.594002
9.233260 -24.973301 13.203200
-3.275320 -45.732300 57.902901
27.733299 61.127899 6.706920
44.661400 -8.460040 4.841650
-48.502300 -28.767500 37.785301
70.731499 64.534798 39.267101
28.233299 41.130199 78.763496
-41.516701 8.277360 101.010002
-52.266701 -40.812199 127.907997
27.171801 -20.980200 4.793370
-48.763802 -51.710999 128.901001
8.783220 3.563770 96.319504
71.233299 30.579000 6.909800
-52.646400 -38.581600 58.423302
113.343002 61.834702 28.079599
-17.152800 -0.050972 148.789993
48.233299 33.604801 68.406998
-71.556602 14.436600 60.200199
-37.002899 24.826000 10.422700
91.610397 36.203800 14.581100
63.278900 0.165236 22.778400
-22.518801 60.403000 27.306101
-22.353701 -14.661200 127.501999
-35.266701 -5.015010 18.422800
4.616210 66.031700 69.064499
27.827600 -34.960999 48.486900
-38.719002 43.557999 23.824699
24.504499 -20.212999 82.992699
20.304300 60.769699 7.473080
28.483299 75.402802 36.120098
12.426000 74.195297 51.806702
61.715801 68.978699 39.082100
103.733002 53.359299 33.422600
79.233299 63.772900 35.784801
-23.802799 -17.698700 165.653000
18.983299 73.338097 40.919102
12.241700 -44.872101 0.737648
-30.766701 48.286098 5.757040
38.017300 55.331799 62.014599
62.750401 12.364100 64.764198
-49.292301 -22.164200 118.144997
-27.758101 -6.333060 100.361000
61.274300 -9.867230 32.589600
61.733299 72.019699 32.601898
-41.516701 -38.380299 146.117996
74.612099 21.969801 14.351200
32.233299 54.680302 2.681630
10.233300 -39.875500 9.835420
-53.308201 -41.887798 80.195602
-51.743000 -21.110701 135.858994
-21.533501 -8.340200 121.676003
-69.028900 6.060020 76.192101
-16.721500 -29.641100 22.377501
43.233299 31.823601 71.134903
8.233260 -35.265598 82.850403
-32.503799 20.988899 13.861000
-51.921700 -5.848910 128.309006
78.483299 63.071400 18.183500
-50.058201 38.010300 29.715799
-67.298500 2.814760 82.266602
67.233299 52.374599 53.681000
48.019299 53.139000 58.009300
51.233299 36.560799 65.211098
35.757000 60.725399 59.303001
-29.266701 -30.618500 138.248993
-42.409698 11.444900 20.693300
68.233299 15.340000 12.913700
9.610600 -32.731899 84.411301
-18.311001 59.703701 23.456600
22.271601 62.152802 7.855930
-69.833099 6.571740 74.091003
54.723999 72.908302 35.684799
48.119099 11.554500 0.760841
-35.648899 58.848099 60.305099
-32.266701 -23.135300 132.134003
-43.766701 7.218020 105.146004
-27.815201 40.767300 14.433600
62.333199 -6.761660 50.633301
24.204300 36.855598 81.486099
17.936501 -30.607000 3.953920
16.651899 65.425797 63.792900
-61.446301 30.760900 40.432701
8.892610 -12.245700 94.758904
-66.445099 20.293800 47.303101
-38.258499 20.526400 19.254900
6.273530 -38.589699 80.009804
-76.275299 -13.193500 68.771500
-60.398998 -49.512501 125.838997
93.803902 25.128901 35.535702
-10.954200 31.257900 94.569901
-19.739799 -29.619400 7.365890
-40.266701 -23.671801 116.546997
-6.804510 70.529503 56.338902
-32.335999 -21.580400 23.565500
109.737000 58.563301 21.155800
-30.201401 -22.882200 168.966995
-47.266701 -22.341900 119.097000
0.233261 -25.476801 13.078300
24.733299 56.410099 2.449470
-58.958801 -9.257070 35.663200
102.831001 67.585800 21.345301
57.247700 18.669201 69.911598
-29.766701 6.369240 13.187000
65.233299 48.685699 58.204399
-49.697300 -40.480099 147.554993
-6.266740 -48.010899 51.978100
-33.729198 24.221600 14.422000
39.193699 16.368299 79.300499
34.733299 54.682201 3.965480
-19.504999 12.437400 98.265404
44.233299 31.679199 70.871101
-15.516700 43.708801 1.671700
112.757004 35.585602 32.023899
-21.266701 -37.099800 88.789597
41.733299 56.919800 7.870700
-8.804980 3.847240 0.217216
61.059700 62.939499 15.209200
-14.391700 42.063301 1.186680
49.088501 50.758499 3.249550
-40.864101 16.235100 7.638340
-27.756001 59.114700 74.136597
70.514702 1.387350 51.972801
52.942101 46.278099 58.917999
-4.240560 55.899700 9.588710
8.680570 59.638500 11.592600
-18.109400 66.576500 41.345798
67.751999 44.952000 6.227200
49.132099 27.661600 73.944801
50.125500 11.259500 0.889450
101.608002 56.817501 32.450901
-47.380901 -25.832399 168.020996
-37.764500 14.996300 9.161450
66.675903 -2.258860 44.686798
-76.988297 -23.018600 69.875198
39.233299 -23.269699 27.958500
-24.896500 -26.320700 154.572998
-19.696100 -30.740400 4.751550
19.483299 -24.391199 14.266500
72.233299 31.046499 61.385799
-7.706570 -41.273602 79.014198
20.052401 60.127602 68.692001
13.880700 -37.447601 75.779602
-18.869699 -21.316900 98.080101
117.432999 56.643398 29.009300
21.233299 61.207401 7.233420
20.733299 -22.758900 0.588753
-24.266701 46.520901 87.048302
-32.836201 -46.086601 66.800301
45.233299 52.689602 62.629002
-63.554699 16.249201 37.492100
-41.832100 -41.798500 60.953201
-57.576801 -35.835999 131.072998
32.397400 38.805901 76.916801
-3.772090 5.316230 97.683601
20.733299 21.265499 87.250603
34.294300 -30.888800 56.568401
-31.016701 -43.445099 79.846802
35.810600 35.439899 73.055000
-54.414501 -35.808800 149.576004
18.369499 -1.099990 90.936996
15.137500 -42.080399 44.123100
-72.161003 7.451350 58.894199
35.904701 41.593601 74.403999
-42.203999 42.708900 1.044200
10.680000 -43.044300 52.944099
110.222000 66.024300 26.817699
-4.266740 -1.128130 98.406898
-25.113701 -15.419700 122.199997
-12.872500 -38.664799 4.335030
53.736801 -4.516810 14.132600
59.392300 -11.747000 34.579899
-38.016701 17.466200 1.179230
-45.546501 32.605999 12.000800
-38.427399 37.702801 10.030600
-39.261299 57.281799 58.602100
69.983299 68.032898 35.719002
-24.227301 12.220100 9.297290
55.636398 8.606110 5.819560
-17.006800 66.200600 36.566898
-35.840401 -42.108898 79.808098
-53.774601 21.107100 27.429701
23.733299 75.444702 35.350601
-32.266701 11.695700 144.501999
7.805210 -5.446470 96.746803
33.983799 65.135101 57.021801
38.226898 -23.816401 65.284203
-17.079201 53.851398 82.998001
63.645802 70.960602 34.347099
-56.070801 -35.527000 130.863007
-2.266740 40.665199 89.367401
-19.499300 -13.374100 158.080002
-62.941200 -55.431499 126.244003
-39.676701 19.386200 98.284599
117.757004 54.961102 24.849800
85.716103 17.655300 37.908001
-20.766701 59.436901 76.893898
-54.280499 -12.086500 157.660995
36.156399 21.933500 80.450104
-26.194700 12.729500 10.227700
81.786598 21.213800 55.919899
-42.044498 35.129398 87.845703
75.089600 52.395901 59.172401
-33.768700 58.312698 40.746799
99.685204 30.520300 21.143299
-57.331501 30.486601 78.283501
78.233299 67.119102 33.163898
-4.241840 -45.607300 6.969600
79.694298 44.848099 58.748199
-58.594601 -26.264601 138.561005
16.944700 -34.016300 2.932720
-75.753899 -14.268200 83.776199
-73.487900 -8.838370 85.364601
-57.832802 17.057800 87.894501
76.788101 67.997803 24.606899
-75.330101 -11.784900 83.106102
70.777100 26.372900 7.748970
-55.837200 40.618801 55.796600
-30.266701 -21.802099 131.126007
-70.396797 -5.403030 87.474701
-36.868698 -38.568901 43.543598
17.733299 -30.625700 17.455601
98.025497 47.139599 38.144699
-42.372898 5.384580 153.630005
-43.766701 42.153801 82.715599
-31.292299 48.265499 20.505100
-7.176610 68.058899 30.273701
-11.266700 -35.987099 26.404100
103.791000 45.901901 34.370300
-0.766739 57.791302 78.160698
-63.766701 -40.796101 72.238998
-40.039001 -36.636902 155.145996
-57.845200 -39.581600 88.819000
81.843002 19.726700 45.633499
-63.329102 17.061800 81.652802
59.230499 -9.451100 28.187099
-14.533600 -17.487900 16.463900
-33.505798 56.458099 32.560200
-38.244999 -38.713402 138.287994
-31.019699 -32.741199 140.350006
57.233299 45.237701 60.236099
36.983299 53.110001 66.731102
-23.818199 -12.502500 119.154999
39.723801 -12.539900 4.544690
35.670101 -21.348200 20.866100
35.755001 62.541599 12.845800
12.412200 73.314201 33.803001
-10.266700 -48.499802 48.964802
68.116501 57.451000 45.073200
-49.195202 -45.532200 139.916000
-43.750801 -19.825800 129.132004
18.825500 -28.023199 8.861460
-42.572102 -28.841900 33.844101
-7.766740 -37.429798 -0.398918
27.452000 18.693899 0.764198
-59.611900 4.232590 33.752499
-54.266701 -32.823700 101.749001
-4.617890 -32.111301 89.065102
10.233300 -45.486099 9.385590
-30.226801 -18.761700 105.647003
-33.934399 60.785198 54.191799
94.733299 73.579498 26.625999
118.266998 38.257099 29.488400
6.233260 -26.338400 14.874500
74.857597 55.321301 51.763401
82.269501 22.009501 55.589001
7.733260 52.100800 1.970160
-5.865630 -12.211600 6.956100
-41.184799 21.086700 8.833560
-71.473396 -31.253599 61.956699
-31.597799 48.469398 5.713040
-44.824200 37.113300 1.229620
16.183201 -34.855999 2.308690
-56.264000 40.523300 46.427799
-43.280701 52.731800 65.479301
31.212601 -28.356199 69.472702
11.804800 -9.150130 94.184402
26.464300 74.708900 39.153301
20.696400 -23.918600 10.532800
-55.716400 -7.303120 155.847000
-15.484500 -33.345200 24.982599
-22.266701 -47.999500 59.610401
-17.970600 -22.913500 142.194000
84.733299 71.847099 28.667700
25.233299 -21.415600 0.959961
49.269199 23.234800 74.317497
-13.266700 -23.292900 97.239197
-58.576698 -25.086800 150.240997
84.944298 21.408400 20.482201
-52.313599 4.832460 100.888000
84.733299 57.451698 38.815300
29.882700 -34.801601 41.123501
-54.916401 -24.736000 156.746994
6.233260 72.890198 52.607498
-39.587299 39.852200 22.685699
93.028801 39.617901 41.604198
18.733299 73.672302 46.581402
55.624100 23.759600 71.540703
-41.766701 -32.131500 165.498001
-18.371599 47.697498 86.912498
116.339996 31.265699 28.755800
-9.266740 58.028599 79.695198
3.337310 -47.765099 2.715090
-29.016701 45.499500 11.791800
-28.225201 -32.365299 151.376007
66.233299 -0.132339 25.259001
78.475601 22.568399 58.896801
-6.516740 1.950370 -0.019012
78.620796 17.852301 49.779900
98.138901 73.228798 24.023199
35.424599 -17.377501 75.596703
-49.207600 7.701460 23.835899
34.648399 -31.727200 45.001499
80.407204 54.684101 56.637501
29.733299 61.827801 7.463800
3.233260 -27.265301 13.181500
-74.242401 -8.077850 80.506500
-21.766701 65.089897 63.575699
-57.779701 -28.943501 146.796005
-55.242298 -17.774300 157.160004
-28.446199 -14.188800 102.663002
30.226900 56.574001 67.364098
87.147301 44.365501 45.199799
-48.740299 -16.701900 168.985992
58.241100 32.100800 67.060402
6.240510 -49.698200 1.287500
27.545200 73.199997 28.281500
16.964399 73.831001 33.271301
31.227699 8.370260 84.608200
-13.266700 6.088960 97.012604
25.884199 -21.089399 1.555920
-24.735300 20.864201 1.376370
-27.832100 27.937099 0.561829
-37.644699 48.708302 1.620640
-51.807098 1.891090 143.369003
68.271599 18.006201 10.812900
-67.196297 -10.022800 99.079597
-63.792702 9.918090 36.976898
2.270480 68.327599 25.999399
-26.561399 -42.132000 40.708900
-26.766701 -14.910500 99.448303
53.223000 -6.574620 67.614304
90.727303 28.423800 17.990299
-26.201401 -14.549600 168.429993
94.698303 52.144501 38.492100
-63.743301 -44.473701 129.643005
-52.769100 41.816601 38.370201
111.232002 63.545502 27.043600
42.734100 -24.476700 37.023998
-51.317101 -26.067900 37.233898
47.779701 -17.989201 25.982901
80.606598 51.829399 46.154800
59.584599 11.045800 7.672800
-49.338600 47.101101 52.007900
-18.355700 -4.884570 14.496200
-38.251301 9.256610 114.379997
63.773701 8.005160 16.175100
29.966700 -23.257601 16.423700
-35.764801 15.106700 6.248270
95.983299 57.111301 16.644501
10.733300 71.562500 56.260502
22.538601 -18.155001 84.966301
102.795998 22.697599 25.572100
19.185400 -26.611200 82.626198
75.233299 56.397202 57.713402
-47.132401 48.584301 48.915798
-9.221530 -19.492901 97.892502
8.240390 72.835800 34.152302
19.233299 73.722198 53.958099
56.740601 6.893440 7.897240
56.394402 -13.573400 39.325298
103.476997 32.900299 33.736500
99.803101 64.551201 30.959200
-18.637400 4.342660 141.266006
0.733261 -0.171625 98.071602
-3.766740 -45.493599 0.709969
-45.558300 -9.331870 23.813000
3.064060 -29.803900 13.292500
3.209580 -21.433901 92.645599
80.325699 55.848099 52.558300
-20.437599 -26.956499 142.237000
59.233299 27.850201 1.404850
66.972504 46.667000 6.616820
-14.712000 -48.348000 50.157398
-70.496201 13.010600 66.966202
-47.674099 -16.874500 129.830002
31.314800 -27.862700 70.817200
-41.589600 47.919102 6.826390
52.733299 73.930099 30.479601
-36.333099 34.127602 0.765800
18.483299 55.613201 2.885720
-16.135201 -14.213800 138.018005
-57.529701 -30.098200 46.004299
-29.242800 -18.573099 114.924004
111.733002 47.974701 32.460999
-50.190399 -38.314602 90.746498
48.354401 -0.967659 1.867870
-1.356890 -44.215199 61.035301
85.303802 32.301399 55.550098
-29.766701 46.013901 2.440790
-69.676903 20.656700 66.355598
-24.624100 51.678299 83.453697
14.733300 73.202499 55.091202
57.733299 68.423103 41.853802
4.733260 51.953602 80.832901
119.271004 42.378201 28.164801
45.233299 31.691000 70.746399
-60.700600 32.225399 67.640999
98.983299 60.305599 31.533899
110.004997 53.822201 32.242500
22.759100 15.184500 88.690697
-62.078300 -27.854200 103.722000
51.771099 72.999397 37.923401
23.945801 -36.274200 51.473801
-1.208870 56.343899 8.185980
-42.057800 -41.981602 134.253006
-13.152100 64.463501 26.541800
-44.766701 32.316700 0.757393
38.614399 -28.621201 45.841000
36.440300 -11.287700 1.759090
-17.879700 -20.862200 149.177994
-39.277302 -25.123600 133.707001
80.361801 10.850900 39.362202
8.295380 -26.457100 14.768000
-49.284901 -39.302898 58.667099
17.233299 71.494202 56.135700
43.737202 32.613098 70.494698
17.733299 73.101997 44.557400
-62.281399 -19.777599 108.237999
39.594200 -0.213478 79.074997
-11.236100 -2.322360 6.696830
-18.823099 65.337601 36.670700
81.923599 32.088100 58.462898
-52.264599 -6.165490 157.862000
86.993698 47.486500 44.057400
29.233299 74.514198 39.180302
32.233299 74.109001 38.221100
-21.913300 -47.967201 61.294102
57.550201 31.202999 70.001404
-15.545700 -40.781200 32.145401
-18.275900 -33.817902 26.201500
49.904400 45.954300 1.951470
93.202003 69.742599 21.196800
-26.230499 -32.201302 143.251007
-6.579240 44.242298 1.147270
-12.266700 68.515404 41.424301
32.108299 68.310303 55.032501
-11.266700 -13.774700 99.512802
-62.390701 -23.518400 106.154999
52.233299 65.088600 16.509199
-9.904250 -22.305000 12.831000
-34.766701 44.927200 11.773500
-51.766701 -11.462500 158.662003
-17.452600 -41.949200 35.014400
38.749699 -6.893650 77.592300
92.930298 23.728701 24.763700
-26.609600 -23.913401 163.848999
-53.981300 -8.080630 122.144997
-67.369797 -36.944199 63.984200
47.751099 -9.817630 69.530602
-41.970798 42.644501 7.809630
70.706703 69.314903 33.103600
-61.655602 27.125700 38.487598
81.233299 38.500702 59.383598
-48.266701 -37.091801 152.822998
-19.016701 -16.338800 17.521700
64.361504 49.391399 57.596199
-70.834801 -30.110701 91.429100
-47.766701 51.379299 55.366001
98.733299 71.027702 28.212200
-32.333199 15.728300 13.772800
36.608299 72.477097 43.682899
-40.211201 -42.687599 62.142502
-23.266701 -47.245998 55.038300
-35.176201 56.352402 34.402500
56.722599 53.180401 55.660099
28.733299 -21.283199 8.502330
9.750400 -39.722698 27.779400
23.268499 56.732101 70.744797
-44.725601 -31.825600 39.131001
-75.827003 -11.161800 78.873100
-33.895500 -23.450399 100.608002
11.251000 28.600500 89.272003
99.908501 41.350601 16.556601
-50.554100 -12.876000 131.024994
31.233299 75.262901 36.355701
-51.518200 -14.954900 162.725998
22.905001 46.996300 78.025101
-49.058102 5.159490 114.057999
76.733299 69.733398 27.076799
83.787003 41.771599 10.457400
60.077702 63.022800 48.991600
71.590302 54.144001 49.348301
82.346603 28.627899 50.720798
4.233260 73.182602 50.655201
83.502296 27.859501 54.525398
60.105202 70.543602 27.486500
38.728298 37.821602 70.600998
62.733299 29.902800 64.502899
68.809601 53.509102 51.764099
-42.766701 32.200001 13.283500
14.022100 -44.209702 6.233220
99.620499 26.619600 33.559299
-41.557201 53.174999 70.985100
-59.172001 -8.457240 150.615997
-70.691101 16.202999 54.597198
-21.766701 -1.916770 98.102798
39.382702 -19.677200 68.769203
5.733260 -46.319599 -0.525902
26.809799 -14.804300 0.340263
-66.517799 29.357901 58.301601
64.386398 60.655499 44.667500
-43.240101 26.383400 8.595590
-28.766701 47.356899 7.032340
-19.266701 47.293900 9.150350
-74.904701 -27.671700 65.571297
42.777401 8.922930 77.200203
44.248901 1.393470 75.983398
-51.314800 23.715200 25.991301
-15.361900 -24.352200 11.214100
72.483299 67.633797 24.806200
-24.148300 -20.172600 164.082001
15.302000 -27.853701 84.524002
-49.096100 -18.286800 123.717003
37.364201 41.463200 72.237198
70.233299 39.108601 61.535099
86.294098 40.745201 47.087200
-8.925460 -43.353199 9.184430
91.929802 33.166500 41.512798
79.121803 66.897598 33.162800
-34.766701 -34.410599 150.785004
-10.766700 0.687830 99.641502
-1.115400 45.195702 87.230698
30.734600 52.014801 70.528297
108.844002 66.211899 27.745300
-52.909199 -21.916300 164.425003
-51.764500 -8.455640 131.453003
7.233260 -50.560799 5.149990
-43.794102 25.449800 1.150380
64.220497 5.862300 63.147301
74.233299 54.678200 58.738300
-8.924150 52.830601 13.715300
37.233299 74.482300 40.558102
24.570900 44.344501 78.812401
-57.055199 39.943501 60.405998
112.207001 43.578499 32.454102
67.751297 55.121700 51.071201
5.233260 -38.866001 80.261200
-62.527199 -56.939301 126.612999
48.233299 9.899650 0.648689
84.242996 29.619600 47.347900
17.531900 -26.200399 10.608200
59.983299 61.601501 13.500200
19.233299 74.261803 53.032101
-60.796200 -31.595600 138.414001
-39.240398 -23.371000 132.656006
-51.222900 -7.909970 158.692993
40.720402 57.497799 59.723701
-36.853001 6.787860 102.500999
22.717800 32.472500 81.677498
56.733299 72.682602 35.243301
-18.954201 -30.539200 3.036610
9.122800 29.056000 90.027298
-48.270199 -18.610100 134.153000
73.786797 62.346100 16.891500
-63.815899 -38.266701 61.782501
-59.338200 35.277302 67.031403
41.733299 74.569603 38.971401
55.077499 -11.854900 59.773300
-11.724400 66.340797 68.555000
10.733300 -28.327999 15.405300
28.687500 61.757301 61.159599
15.208100 -24.288500 -0.108086
-17.036600 -4.494330 152.647995
-72.644897 -34.368999 73.177200
-40.750900 18.962799 9.273740
-10.766700 -36.248100 86.721603
-13.073400 -8.140590 11.672400
21.983299 64.803703 14.100000
-53.066700 -55.279701 126.521004
77.233299 65.381203 19.918600
110.509003 42.370701 32.949100
-40.051701 22.822800 0.878128
-58.960899 14.350900 88.676804
-61.678902 -4.731640 104.782997
-29.724701 5.314890 159.063995
84.218803 47.738899 48.826599
-37.545700 50.235298 28.434999
-1.766740 -44.069599 71.139503
119.238998 52.291401 25.206699
36.613098 -29.145300 51.568401
-68.150703 20.050301 72.015800
-50.487202 -21.003099 135.322006
-60.347401 35.715801 53.979198
-25.766701 46.557400 8.572070
-24.386600 -21.131701 162.326996
1.233260 50.927502 82.082199
-19.656500 -4.954560 159.615997
-10.011500 -46.943100 4.309500
-28.531000 63.376301 51.970402
-20.029900 -38.489899 86.909203
-54.315701 -46.879398 139.360001
-70.413002 18.988899 62.268200
82.358299 65.168198 19.732201
-55.126099 -19.199100 36.114601
60.754002 -7.992700 28.160000
49.118000 49.501202 59.694099
43.947399 65.520302 53.384899
10.685600 -43.910099 42.863098
22.983299 74.052597 39.984600
-30.766701 49.146301 82.761497
102.483002 60.456501 19.091600
-43.121300 -39.471500 53.775600
-43.636902 40.407902 1.242770
62.233299 51.321098 54.688599
-35.292099 -29.812300 29.353399
62.358299 70.428703 28.406300
85.467499 50.372398 53.013302
46.233299 66.220398 51.923698
76.107101 57.708000 55.314400
58.129501 4.937520 13.695400
-21.738100 -12.288700 164.313004
66.303001 14.760900 62.974998
3.233260 -42.716702 73.248901
102.233002 53.403999 33.504398
63.776501 -6.367440 42.803398
-47.718300 -50.314499 131.561005
40.983299 53.140400 62.952301
-18.766701 38.948002 91.436699
7.229030 -27.424000 87.739700
34.145802 -30.301100 59.596901
-36.377998 33.209900 90.786201
-43.766701 25.709200 94.326202
-27.532600 -25.601000 96.282898
-19.601900 -15.311800 153.578003
76.925797 62.627998 37.858398
29.733299 67.241997 18.750401
29.553801 53.223900 1.886580
-68.254204 -9.957320 49.481602
-54.766701 -56.111000 131.884003
24.233299 41.179001 80.935097
92.733299 71.954697 27.823000
-42.266701 -27.449499 168.755005
63.022598 -1.513810 24.037100
3.283800 -40.915798 -0.694809
-19.976700 65.505798 40.532902
29.733299 61.517899 63.240101
-43.322800 35.666599 22.787901
15.278400 0.194977 93.518799
57.243999 3.445060 9.813160
111.012001 65.459198 24.856701
77.500298 8.777790 26.712700
-2.766740 -24.380301 13.618100
-26.818600 42.112900 14.836900
-51.981098 11.787000 95.663597
12.791500 21.181000 89.178596
-43.709702 -19.749599 130.852997
-42.543301 -31.584400 36.887001
-55.267899 -33.469501 149.699997
-37.324902 47.786999 10.682600
38.048401 56.273300 61.651901
35.554699 -29.454000 54.648499
9.233260 1.823490 96.314400
-31.535601 10.666500 122.467003
26.691601 67.085800 18.835199
-23.266701 46.613201 10.688200
21.636801 -25.930500 7.626430
-53.784000 -1.199310 151.488998
-53.895599 -14.066600 158.509003
4.691650 -42.891899 69.962601
-28.766701 -25.094500 134.281998
-64.084900 -10.386200 41.859501
-42.111099 40.667400 0.861366
-11.016700 -33.874599 24.015499
-46.096500 20.418501 96.034897
-44.535599 50.807800 71.374397
-40.350899 27.687599 93.514801
-0.628593 26.290701 94.078499
-38.770802 -32.275501 93.729599
28.527300 5.700500 0.598602
36.279900 58.676899 8.299560
-34.332100 -21.929001 113.564003
-39.766701 15.837800 2.369600
37.187500 19.835300 80.473297
-42.285500 -42.048199 78.071701
85.648201 59.460098 36.236801
27.920799 -7.564040 0.099548
-23.088699 -38.363300 32.576199
-33.768398 21.384701 12.505300
-34.766701 59.471401 47.515701
-59.638100 -32.695900 135.026001
-43.766701 27.907301 92.281898
86.233299 72.356598 28.557100
-45.321201 23.138599 23.203400
2.233260 57.603500 16.186199
76.442299 30.736401 9.271080
106.593002 67.635696 28.263599
-34.724602 -35.674900 141.632004
106.483002 25.708500 24.303801
-40.606998 1.729580 19.300400
-22.309900 -27.636000 139.565002
-64.148102 -45.871700 129.128998
-5.766740 -41.692101 11.624400
-46.391201 48.154598 36.610500
59.485001 29.361200 66.637199
-30.266701 2.498210 15.487000
-37.391701 20.181999 0.824455
46.233299 52.183399 61.766102
111.634003 64.821503 25.205700
15.114500 -27.788900 0.746727
69.077599 55.640099 49.606899
-38.895000 26.750299 94.926399
73.600304 49.568699 60.024700
-13.766700 -39.155201 84.694801
115.237999 30.020201 28.285200
-26.684999 7.476840 153.209000
-21.266701 43.583698 2.631170
29.983299 75.448799 33.068298
8.834660 -51.098499 0.884171
-18.766701 65.092499 30.757700
88.903603 46.132301 43.154202
73.233299 39.107101 61.532398
-21.391800 -11.445900 125.292999
60.959702 62.357899 45.694599
-38.434299 30.363800 19.220501
-52.454201 -27.090099 110.581001
-72.019699 6.939210 63.164700
-13.124800 -45.447201 71.323700
-75.014801 -30.281601 72.264702
-45.905399 -18.716801 28.665899
28.143801 75.142303 37.804401
-51.394299 -11.716900 126.960999
47.237400 26.352600 75.203003
-19.341499 11.325400 4.539310
-8.266740 24.266100 96.896301
73.615700 3.367330 40.786400
-11.772000 -46.999100 62.351898
69.746696 -2.587600 38.503799
71.785896 3.393820 53.705200
12.755000 -13.961900 91.181099
-34.766701 19.421400 12.439100
35.175900 -20.157301 18.703100
96.469498 35.939301 16.662300
13.673400 1.145540 94.290604
104.372002 63.036201 20.368900
-30.814501 47.722599 4.419300
23.477600 26.463400 82.681396
-35.555801 -36.663101 141.764999
-7.266740 45.749298 1.565220
-48.246201 -7.471370 162.828003
82.160103 27.412500 51.500099
-22.141701 17.194201 99.596901
-43.266701 -36.736198 157.759003
-54.682499 -7.093820 138.421997
-60.783699 -24.515200 43.714401
23.377501 28.659401 82.014603
-76.014000 -11.359600 76.051804
79.624001 29.367701 59.098499
-21.407301 58.479301 24.117701
55.620701 -3.836040 65.401199
27.668900 34.577301 79.182899
-55.025501 18.592699 90.698097
-42.022202 -37.348598 151.835007
11.237900 -46.319801 0.542747
16.087601 54.468201 2.366230
76.733299 36.441101 59.786301
-19.755199 -20.999001 152.268997
13.418400 -24.294300 -0.096527
-53.329201 -31.656900 44.727699
-14.367100 -25.792101 20.100800
55.912601 10.871900 4.752260
33.295399 75.070297 35.568001
24.233299 -37.205399 58.261200
47.233299 6.387510 0.725876
-31.333700 -36.978699 35.690800
8.393050 59.312599 14.516600
36.233299 63.684898 14.850900
-3.217180 3.108100 97.700500
56.450298 3.301560 7.583560
74.132004 56.749901 56.094200
20.764799 -25.924801 82.343201
8.733260 -27.469000 14.891900
-45.299702 50.174400 47.140598
79.095596 32.636600 10.069300
19.598801 -34.772900 25.572701
83.233299 70.599403 29.512400
-27.839500 41.135101 13.176400
100.777000 54.332100 33.117100
80.484703 19.699600 56.340000
-41.299400 -33.507099 93.858200
64.233299 67.473602 40.462002
-41.302799 0.033625 164.537003
-64.324600 -29.807899 99.946999
84.047501 25.259701 46.397900
-0.766739 -26.466000 12.241800
74.326797 41.065498 61.029202
-46.233101 -17.994900 131.052994
103.728996 65.067802 29.813700
-27.766701 -9.210420 100.303001
26.733299 -22.198700 14.106400
-30.766701 -38.470402 87.140404
84.780197 23.685101 44.876499
74.433197 37.921902 60.940601
-36.880798 22.731199 10.796200
82.733299 65.726601 33.106201
-32.766701 20.035101 12.361000
-49.641701 -29.915899 107.176003
53.699501 27.712799 71.777298
31.749701 58.932201 5.044610
41.733299 66.320900 17.302000
3.233260 54.026901 79.413902
6.638240 -3.663600 97.156898
-53.766701 -41.315498 83.568199
-48.766701 -42.824402 143.990997
36.733299 30.271999 74.547997
15.483300 26.840500 86.501297
-32.057800 10.675700 99.421700
-19.860701 66.834198 42.914700
89.983299 69.689201 29.485901
35.850300 -17.171900 8.531650
38.694500 -14.098600 16.354401
81.667801 32.334400 12.198600
74.195702 8.058070 50.631599
-45.139500 -19.802999 133.014999
-51.237000 38.874599 78.718498
-38.435799 25.185400 18.243099
17.217800 74.161102 35.450500
-47.803600 46.459099 74.070396
-65.963303 28.985001 62.702801
42.733299 71.857002 42.600498
23.820801 10.501000 88.209396
-8.766740 -42.292301 0.310242
107.637001 21.967699 30.426001
-47.074100 6.347160 109.870003
60.233299 13.332500 66.513000
-10.529200 -41.127800 1.396060
-22.766701 -17.315500 18.340700
18.132601 0.995539 91.873901
-52.276402 -49.494099 136.809006
63.733299 69.028702 26.322599
37.795799 73.757103 27.439100
54.233299 45.599300 58.814201
-68.850601 -0.278996 82.383102
-2.254350 7.263860 96.311302
-23.032600 -7.062110 115.864998
-50.587502 1.606730 137.621994
87.381104 25.161301 18.358601
-64.901497 5.053530 40.161800
63.148998 60.928501 45.507401
22.733299 68.919502 57.680099
21.614000 73.053299 52.736198
-25.016701 -46.164398 50.872101
-24.766701 -43.740398 79.509697
117.095001 51.584202 31.220900
-10.348500 -0.624821 4.514320
-52.186901 18.622299 92.834602
-43.898499 40.910000 6.518050
-54.297501 -50.540901 125.658997
-41.937500 -35.881401 42.411598
-52.049301 -38.993801 128.641998
22.048201 66.957497 59.280300
23.728201 61.018600 66.077904
24.233299 -22.556601 13.803600
49.407001 46.536098 60.525299
