-51.491501 -128.363998 102.878998
-53.443298 -129.335007 103.396004
-53.118599 -128.904999 103.341003
-52.709202 -128.548004 103.220001
-52.108002 -128.464005 103.080002
-51.973000 -127.928001 102.841003
-51.977200 -126.535004 101.683998
-51.793800 -126.892998 102.057999
-51.662998 -127.233002 102.374001
-51.314098 -127.456001 102.502998
-48.269100 -128.223999 99.748703
-48.172001 -128.774002 100.071999
-48.357399 -129.393997 101.039001
-48.196999 -129.216995 100.526001
-47.974701 -128.779999 98.844498
-48.052299 -128.602005 99.090599
-48.083302 -128.690002 99.506599
-47.866100 -129.272995 98.711899
-47.924301 -129.048004 98.862602
-47.974602 -128.942001 99.138199
-47.976200 -129.151993 99.503502
-11.690500 -139.177994 114.837997
-11.919400 -139.039993 114.851997
-12.152800 -138.929993 114.711998
-12.336600 -138.710999 114.568001
-12.805800 -138.925995 113.237999
-12.791800 -138.740997 113.417999
-12.670100 -138.826004 113.663002
-12.540300 -138.953995 113.856003
-12.467200 -138.880997 114.136002
-12.321400 -138.929993 114.422997
-39.222198 -88.636902 97.709396
-39.148300 -88.844299 97.739304
-39.046101 -89.030998 97.792099
-39.072399 -89.204803 97.737099
-37.125401 -87.000801 98.920403
-37.566002 -87.345703 98.903099
-37.915798 -87.686600 98.791199
-38.193100 -88.074600 98.614899
-38.480499 -88.421501 98.378502
-38.741100 -88.696098 98.135101
-38.933498 -88.902397 97.928902
-35.912899 -87.655800 99.091698
-36.492001 -88.017303 99.096001
-36.977798 -88.340401 99.053398
-37.450600 -88.520401 98.902100
-37.949100 -88.617798 98.667503
-38.310600 -88.985603 98.375000
-38.695900 -89.098503 98.078003
-38.909500 -89.185799 97.870796
-38.791302 -89.769699 97.779701
-38.910400 -89.575500 97.798698
-39.011200 -89.387398 97.782501
-40.004398 -89.548500 99.374397
-39.803001 -89.321899 99.009598
-39.492901 -89.297302 98.581100
-39.320499 -89.197502 98.194397
-39.174400 -89.218002 97.915199
-21.057400 -116.681000 119.361000
-20.996099 -116.370003 119.389999
-20.915701 -116.029999 119.305000
-20.804800 -115.682999 119.166000
-20.570400 -115.313004 118.980003
-20.299999 -114.985001 118.767998
-20.253799 -114.726997 118.424004
-21.923800 -114.535004 118.022003
-21.664900 -114.834999 118.084999
-21.223101 -114.792999 118.084000
-20.936899 -114.839996 118.081001
-20.688999 -114.757004 118.066002
-20.538000 -114.888000 118.334999
-8.247570 -99.226303 111.106003
-8.069030 -99.280098 111.009003
-7.832490 -99.339600 111.029999
-7.628740 -99.335403 111.115997
-7.469300 -99.463097 110.990997
-7.239450 -99.468201 111.028000
-7.111970 -99.755798 110.206001
-7.254820 -99.666496 110.591003
-7.279340 -99.582298 110.857002
-6.528070 -99.769699 110.841003
-6.708470 -99.686203 110.891998
-6.883600 -99.635902 110.918999
-7.066930 -99.567200 110.962997
-7.469490 -99.218803 111.126999
-7.336220 -99.333702 111.091003
-29.985800 -111.519997 108.029999
-30.162001 -111.452003 108.024002
-30.322901 -111.502998 107.814003
-30.808800 -111.250999 107.732002
-30.523600 -111.401001 107.787003
-30.181999 -111.635002 107.947998
-4.058440 -86.350304 124.250000
-4.400470 -86.636597 124.307999
-4.818150 -86.937698 124.357002
-5.292100 -87.195801 124.314003
-5.842380 -87.889198 124.289001
-5.907150 -88.418297 124.327003
-6.316490 -88.526703 124.056000
-4.890280 -89.508499 124.930000
-5.253730 -89.323700 124.723000
-5.556840 -88.882797 124.543999
-6.004630 -88.960602 124.238998
-6.714540 -89.794403 123.355003
-6.618410 -89.401802 123.628998
-6.492780 -88.940102 123.869003
-6.715660 -86.792099 122.943001
-6.723740 -87.327797 123.313004
-6.759090 -87.867500 123.528999
-6.702910 -88.387398 123.694000
-5.987280 -86.439598 123.436996
-6.254430 -86.974800 123.600998
-6.315690 -87.532097 123.844002
-6.342690 -88.038300 123.984001
-32.095901 -100.827003 96.992401
-32.056198 -101.216003 96.962402
-32.075199 -101.430000 97.309998
-32.003502 -101.848999 97.313599
-31.521200 -101.827003 98.868103
-31.765100 -102.035004 98.417603
-31.905500 -101.893997 98.045197
-32.003399 -101.672997 97.664497
-31.317600 -101.064003 95.979103
-31.698099 -101.151001 96.269203
-31.877300 -101.400002 96.596603
-31.954901 -101.599998 96.959999
-31.526300 -102.907997 97.072998
-31.660000 -102.556000 97.034302
-31.854000 -102.238998 97.242897
-47.857399 -130.020004 98.440498
-47.869202 -130.070007 98.682503
-48.398701 -129.841995 101.196999
-48.214901 -129.852005 100.757004
-48.056000 -129.893005 100.230003
-47.917099 -130.031006 99.597298
-47.871700 -130.089996 99.032600
-8.060660 -136.645004 116.661003
-7.773550 -136.567001 116.463997
-7.337940 -136.425995 116.297997
-7.066190 -136.063995 116.042000
-6.565590 -135.910995 115.999001
-6.145110 -135.725006 115.922997
-5.825240 -135.569000 115.818001
-6.414320 -139.029999 116.936996
-6.129900 -138.936005 117.195000
-6.052760 -138.548004 117.362000
-5.911490 -138.104004 117.488998
-6.066000 -137.826004 117.299004
-5.704420 -137.641998 117.558998
-5.530150 -137.250000 117.518997
-5.325140 -136.929993 117.309998
-5.076380 -136.623001 117.079002
-8.130340 -136.783005 116.922997
-7.820040 -136.845001 116.757004
-7.449740 -136.796005 116.580002
-7.016800 -136.737000 116.485001
-6.534860 -136.720993 116.563004
-6.082930 -136.830002 116.778000
-5.591370 -136.682999 116.903000
-5.683650 -135.761993 116.074997
-5.564150 -136.037994 116.375999
-5.355350 -136.354996 116.700996
-6.208480 -139.270996 116.992996
-5.907870 -139.212997 117.263000
-5.834490 -138.865997 117.497002
-5.493350 -138.787994 117.757004
-5.418880 -138.375000 117.847000
-5.195360 -138.056000 117.952003
-4.965190 -137.774002 118.000999
-4.906470 -136.843002 117.466003
-5.137380 -137.143997 117.697998
-4.872080 -137.408005 117.920998
-5.984290 -139.492004 117.002998
-5.664840 -139.468994 117.272003
-5.581540 -139.171005 117.537003
-5.214540 -139.078003 117.778999
-4.880990 -138.929001 117.947998
-4.527860 -138.996994 117.964996
-4.804220 -138.177994 118.077003
-4.637660 -138.561996 118.074997
-9.777690 -139.598007 116.021004
-9.731940 -139.388000 116.360001
-9.406570 -139.427994 116.623001
-9.044630 -139.408005 116.861000
-8.652300 -139.378998 116.995003
-8.537630 -139.022003 117.202003
-8.151480 -138.953995 117.209000
-8.379850 -139.835999 116.535004
-8.317820 -139.600006 116.818001
-8.243090 -139.304001 117.044998
-6.738280 -139.369995 116.699997
-6.956850 -139.216003 116.746002
-7.531740 -139.270996 116.852997
-7.858440 -139.156006 117.025002
-8.552740 -137.087006 117.224998
-8.259420 -137.216003 117.254997
-8.287550 -137.539001 117.347000
-8.240720 -137.882004 117.393997
-8.277650 -138.287994 117.390999
-8.008270 -138.514008 117.291000
-26.607000 -117.362000 114.943001
-26.575001 -117.136002 115.014999
-26.381500 -116.991997 115.116997
-26.366899 -116.805000 115.003998
-26.038601 -116.639000 114.915001
-25.909700 -117.152000 115.544998
-25.984699 -116.973999 115.387001
-26.131001 -116.850998 115.181000
-26.589001 -116.595001 114.670998
-26.353800 -116.638000 114.808998
-24.406799 -115.683998 114.802002
-24.612400 -115.911003 114.668999
-24.728500 -116.223999 114.754997
-25.072901 -116.264000 114.621002
-25.327000 -116.435997 114.726997
-25.659000 -116.584000 114.912003
-25.044901 -116.637001 115.238998
-25.353800 -116.605003 115.040001
-25.805000 -116.765999 115.209999
-2.062280 -81.282303 129.557999
-1.998630 -81.749603 129.518005
-1.908370 -82.309303 129.434006
-1.768480 -82.738297 129.356003
-1.602450 -83.024002 129.298004
-1.618030 -83.309799 129.250000
-1.437290 -83.202797 129.363007
-2.263780 -83.776497 129.363998
-2.005910 -83.584396 129.399002
-1.810210 -83.484497 129.246994
-1.941130 -83.476799 129.074997
-1.854940 -83.298401 129.160995
-46.648499 -124.889000 97.690399
-46.850101 -124.672997 97.671799
-46.963299 -124.430000 97.711403
-47.031300 -124.198997 97.766602
-48.738201 -124.488998 97.722099
-48.415901 -124.416000 97.678703
-47.957500 -124.380997 97.655197
-47.515701 -124.419998 97.635399
-47.236599 -124.278000 97.684303
-47.543400 -123.207001 98.102898
-47.413399 -123.462997 98.025803
-47.296398 -123.724998 97.919601
-47.188000 -123.987999 97.822403
18.003000 -125.964996 130.369995
18.211201 -125.968002 130.464996
18.313700 -126.684998 130.516006
18.457800 -126.402000 130.481003
18.326000 -126.164001 130.391998
18.829000 -125.598999 132.018005
18.991800 -125.706001 131.604996
18.853701 -125.800003 131.253006
18.527599 -125.836998 131.046997
18.323000 -125.898003 130.738007
18.667801 -126.766998 130.619003
18.754999 -126.403000 130.556000
19.023001 -126.272003 130.584000
19.116301 -126.018997 130.615005
18.445801 -125.987999 130.507004
18.660900 -126.023003 130.533997
18.870600 -125.987000 130.610992
-29.166800 -95.324501 96.673401
-29.042000 -95.158997 96.726303
-28.890400 -94.970703 96.775299
-28.719801 -94.793602 96.788399
-28.525801 -94.669998 96.802101
-28.439400 -94.499199 96.897903
-28.318701 -94.340897 97.004898
-35.607601 -132.917007 105.230003
-35.393299 -133.375000 105.262001
-35.073101 -133.837997 105.392998
-34.868599 -134.311005 105.274002
-34.295898 -134.667007 105.556999
-33.383099 -134.884995 106.032997
-33.600700 -134.766998 105.988998
-33.845699 -134.742004 105.847000
-34.116501 -134.490997 105.862000
-34.309502 -131.617004 106.667999
-34.062401 -132.020004 106.950996
-34.310299 -132.572006 106.754997
-34.444901 -133.091995 106.490997
-34.623501 -133.623993 106.050003
-34.542000 -134.201996 105.723000
-32.985500 -134.908997 106.241997
-32.771500 -134.850006 106.362000
-32.578499 -134.889008 106.452003
-32.421299 -134.714996 106.569000
-31.981501 -134.509995 106.816002
-32.229599 -134.578995 106.708000
-33.496899 -134.953995 105.920998
-33.661800 -134.899994 105.843002
-33.790699 -134.957993 105.707001
-34.020699 -134.819000 105.647003
-45.395199 -116.500999 99.802696
-44.887402 -116.397003 100.365997
-45.375099 -116.598000 100.605003
-45.415699 -116.776001 101.221001
-45.469398 -117.046997 101.694000
-45.385899 -117.382004 102.125999
-45.581001 -117.815002 102.404999
-46.522900 -117.410004 101.338997
-46.053902 -117.399002 101.778000
-45.887798 -117.630997 102.129997
-47.796001 -119.846001 101.896004
-47.503300 -119.293999 102.069000
-47.104900 -119.068001 102.364998
-46.748001 -118.703003 102.427002
-46.365200 -118.341003 102.428001
-46.011101 -118.001999 102.362000
-45.549099 -120.766998 103.555000
-45.699100 -119.973999 103.413002
-45.344200 -119.471001 103.367996
-45.459202 -118.845001 103.041000
-45.747101 -118.348000 102.688004
-49.831501 -119.412003 100.286003
-49.626900 -119.551003 99.943802
-49.231400 -119.862999 99.224899
-48.941898 -120.251999 98.909897
-48.778099 -120.412003 98.463303
-48.672199 -120.555000 98.322701
-48.785900 -120.238998 97.978302
-49.699402 -118.769997 96.614304
-49.485100 -118.984001 96.714996
-49.318600 -119.218002 96.855103
-49.153900 -119.476997 97.034798
-48.967999 -119.735001 97.190903
-48.817501 -119.981003 97.364304
-31.466801 -98.770798 95.640999
-31.166901 -98.323303 95.630402
-30.741501 -97.814598 95.451202
-30.285900 -97.291397 95.232597
-29.880501 -96.860603 95.005096
-30.278500 -98.731796 93.710503
-30.069401 -98.335800 93.996902
-29.933001 -97.915298 94.319603
-30.249800 -97.843903 94.836700
-29.871700 -97.417702 94.675003
-31.205500 -96.891296 96.417801
-30.714899 -96.544098 96.082603
-30.293501 -96.720596 95.558098
-29.217100 -95.290497 93.882599
-29.369200 -95.380898 94.390503
-29.537399 -95.951103 94.768501
-29.564199 -96.467796 94.674004
-29.574200 -95.399597 94.850502
-29.785801 -95.726799 95.224197
-29.870199 -96.323898 95.278801
-2.253680 -89.624199 125.994003
-2.324290 -89.240601 125.856003
-2.418660 -88.900200 125.797997
-2.432880 -88.641098 125.675003
-2.578700 -88.185799 125.720001
-2.514870 -88.415802 125.713997
-41.194599 -120.847000 102.170998
-41.159302 -120.402000 102.125000
-41.459000 -120.098999 102.294998
-42.044998 -119.775002 102.442001
-41.222401 -118.627998 101.170998
-41.345200 -118.749001 101.542999
-41.520802 -118.889999 101.867996
-41.571999 -119.233002 102.123001
-41.690601 -119.698997 102.323997
-42.898701 -119.260002 102.420998
-42.500000 -119.574997 102.462997
-46.441601 -123.417000 101.244003
-46.283298 -123.260002 101.564003
-46.046001 -123.058998 101.848999
-45.754501 -122.746002 102.112999
-45.451000 -122.311996 102.375000
-45.144901 -121.922997 102.614998
-44.833698 -121.615997 102.809998
-43.530102 -119.495003 102.572998
-43.797699 -119.943001 102.782997
-43.942902 -120.351997 102.920998
-44.260601 -120.600998 103.010002
-44.543098 -120.920998 103.005997
-44.802399 -121.244003 102.920998
-45.724701 -119.815002 102.500999
-45.624199 -120.222000 102.651001
-45.313400 -120.544998 102.832001
-45.037601 -120.903999 102.925003
-45.214699 -121.416000 102.767998
-42.337502 -120.150002 102.521004
-42.857899 -120.329002 102.581001
-43.412399 -120.431000 102.741997
-43.726299 -120.874001 102.871002
-44.098499 -121.160004 102.931000
-44.457600 -121.436996 102.897003
-41.177101 -121.336998 102.098000
-41.477600 -121.582001 102.254997
-41.791698 -121.892998 102.317001
-42.054100 -122.220001 102.307999
-42.459900 -122.267998 102.392998
-42.709400 -122.666000 102.324997
-43.339901 -122.740997 102.371002
-43.849300 -123.356003 102.257004
-41.313999 -123.179001 101.223999
-41.652100 -123.262001 101.525002
-42.076599 -123.367996 101.773003
-42.555401 -123.489998 101.954002
-43.030201 -123.592003 102.066002
-43.316601 -123.315002 102.223999
-46.316399 -123.724998 101.014000
-46.087200 -123.633003 101.441002
-45.702801 -123.838997 101.593002
-45.377899 -123.733002 101.876999
-44.990898 -123.533997 102.111000
-44.446800 -123.475998 102.216003
-43.266998 -123.945000 101.946999
-43.564201 -123.730003 102.112000
-44.629101 -121.954002 102.699997
-44.383598 -122.359001 102.539001
-44.090099 -122.852997 102.382004
-2.355470 -134.056000 116.223000
-3.011400 -134.166000 116.341003
-3.229010 -133.813995 116.651001
-4.014760 -133.884995 116.706001
-4.573410 -133.492004 116.949997
-5.160200 -133.503006 116.919998
-7.482320 -132.205002 116.445000
-7.157190 -132.451004 116.642998
-6.747720 -132.761002 116.806000
-6.283720 -133.076996 116.904999
-5.800730 -133.337006 116.943001
-5.394120 -133.052994 117.107002
-4.383150 -131.365005 117.233002
-4.507950 -131.917999 117.287003
-4.722920 -132.479996 117.261002
-4.905870 -133.007996 117.164001
-42.394001 -119.760002 103.240997
-42.940498 -119.382004 103.233002
-42.924198 -118.753998 103.066002
-43.512901 -118.488998 103.000999
-43.647999 -117.917000 102.708000
-40.509998 -119.910004 102.487000
-40.814499 -120.035004 102.778999
-40.901100 -119.529999 102.739998
-41.313499 -119.129997 102.870003
-41.737400 -118.848999 102.930000
-42.083302 -118.510002 102.865997
-42.530701 -118.362999 102.872002
-43.052200 -118.138000 102.799004
-45.049900 -120.811996 103.709999
-45.312599 -120.362999 103.620003
-45.011902 -119.957001 103.622002
-44.667099 -119.553001 103.541000
-44.155399 -119.248001 103.412003
-44.169601 -118.767998 103.184998
-44.091999 -118.276001 102.919998
-42.250801 -117.153000 101.438004
-42.624802 -117.253998 101.863998
-42.925400 -117.427002 102.216003
-43.262299 -117.639999 102.487000
-45.130001 -117.975998 102.635002
-44.412998 -117.848000 102.658997
-13.602700 -107.546997 120.366997
-13.862600 -107.925003 120.071999
-14.052400 -108.309998 119.845001
-14.157200 -108.695000 119.612999
-14.304600 -109.045998 119.403000
-14.441800 -109.375000 119.165001
-14.521300 -109.606003 118.919998
-13.134500 -108.786003 117.528999
-13.464300 -109.056000 117.877998
-13.829400 -109.366997 117.882004
-13.984400 -109.490997 118.255997
-14.176900 -109.653000 118.507004
-14.244100 -109.608002 118.753998
-5.217580 -85.381897 124.156998
-5.094430 -85.313904 124.279999
-5.051850 -85.511803 124.360001
-4.852270 -85.633202 124.496002
-7.223010 -86.902901 123.724998
-6.804990 -86.633904 124.014000
-6.360160 -86.406898 124.255997
-5.951190 -86.038803 124.276001
-5.350430 -85.918701 124.500000
-5.040900 -85.729897 124.500999
-4.878340 -85.405899 124.681000
-4.870080 -85.490402 124.517998
-5.310420 -88.749496 125.601997
-5.556910 -88.408798 125.399002
-5.274890 -87.828300 125.400002
-5.129920 -87.226700 125.235001
-5.041290 -86.672302 125.037003
-4.998500 -86.228401 124.828003
-4.890280 -85.942101 124.699997
-4.917360 -88.656898 125.762001
-5.100600 -88.290497 125.612999
-4.768640 -87.936096 125.625999
-4.740910 -87.477798 125.448997
-4.540850 -86.910599 125.238998
-4.570790 -86.473000 125.042999
-4.307540 -86.270203 125.003998
-4.221450 -86.082703 124.967003
-4.735230 -85.775597 124.635002
-4.570410 -85.911102 124.776001
-4.403690 -86.050003 124.893997
-29.205799 -114.736000 88.671097
-29.421499 -114.557999 88.572403
-30.025700 -114.897003 88.854797
-29.824699 -114.788002 88.766800
-29.580000 -114.718002 88.730904
-29.703199 -114.959999 89.023499
-29.516001 -114.848999 88.877800
-29.369301 -114.695999 88.734596
-28.897200 -114.195999 88.366203
-29.041300 -114.355003 88.458900
-29.185600 -114.526001 88.595596
-30.562901 -115.124001 89.128700
-30.560400 -115.221001 89.350502
-30.922600 -115.362999 89.591499
-30.765200 -115.287003 89.452103
-30.379900 -115.348999 89.409698
-30.868999 -115.504997 89.701599
-30.729200 -115.431999 89.604103
-30.575199 -115.366997 89.497597
-29.919100 -115.059998 89.140701
-30.118401 -115.144997 89.238197
-30.335699 -115.180000 89.292900
-2.863140 -97.676598 113.127998
-2.830740 -97.348099 112.959000
-2.770640 -97.033096 112.823997
-2.723610 -96.763901 112.650002
-2.698200 -96.478798 112.517998
-2.701340 -96.170601 112.454002
-2.723640 -95.883400 112.420998
-2.722640 -95.662697 112.208000
-2.817750 -95.927399 112.702003
-2.809070 -95.655998 112.568001
-4.709870 -99.412804 110.412003
-4.508980 -99.452400 110.487000
-4.251070 -99.397102 110.572998
-3.991460 -99.464699 110.751999
-3.639380 -99.280899 110.956001
-3.258870 -99.283798 111.343002
-2.953760 -99.099701 111.720001
-2.757350 -98.856598 112.072998
-2.658270 -98.968399 112.403999
-2.765460 -98.071701 113.081001
-2.610720 -98.384903 112.818001
-2.627980 -98.728104 112.685997
-2.665530 -95.997498 112.142998
-2.655380 -96.367104 112.138000
-2.659850 -96.748497 112.181000
-2.670760 -97.191902 112.066002
-2.640150 -97.470596 112.320000
-2.629050 -97.887199 112.291000
-2.646030 -98.246002 112.380997
-2.623810 -98.587303 112.389999
-4.914890 -99.459099 110.352997
-4.834280 -99.168404 110.321999
-4.682220 -98.835899 110.253998
-4.577900 -98.433296 110.129997
-4.364230 -98.019402 110.043999
-4.170470 -97.515503 109.994003
-3.880410 -96.957802 110.068001
-4.472070 -96.331596 109.655998
-3.965810 -96.434700 109.948997
-3.746560 -95.477699 110.057999
-5.392860 -96.466499 109.266998
-5.031940 -96.096703 109.371002
-4.608330 -95.644096 109.572998
-4.038730 -95.845299 109.877998
-7.092710 -94.753403 108.856003
-6.834100 -94.603897 108.828003
-6.530660 -94.867599 108.795998
-6.163220 -94.710800 108.901001
-5.583440 -94.882202 109.116997
-5.229770 -95.463203 109.251999
-4.829780 -94.953003 109.485001
-4.170720 -95.302299 109.795998
-2.718720 -95.735100 111.858002
-2.928270 -95.553802 111.226997
-3.155750 -95.612602 110.805000
-3.444670 -95.584503 110.407997
-2.726680 -98.469299 112.015999
-2.698230 -98.099899 111.956001
-2.784610 -97.864403 111.622002
-2.879330 -97.572197 111.309998
-3.023770 -97.312202 110.996002
-3.114410 -96.917702 110.862999
-3.179470 -96.487000 110.695999
-3.273720 -96.041000 110.535004
-3.622830 -95.960197 110.164001
-5.923560 -99.260300 110.165001
-6.107500 -99.197800 110.160004
-6.129410 -98.984802 110.123001
-5.229070 -99.438904 110.264999
-5.387990 -99.400497 110.227997
-5.547070 -99.282204 110.210999
-5.735010 -99.244698 110.191002
-5.884870 -99.057602 110.151001
-6.353840 -98.984299 110.127998
-6.226500 -98.720100 110.022003
-3.004810 -100.957001 110.125000
-3.195650 -100.902000 110.504997
-3.381430 -100.755997 110.831001
-3.449660 -100.608002 111.083000
-3.580170 -100.343002 111.106003
-3.468650 -100.084999 111.290001
-4.794210 -99.676697 110.365997
-4.639620 -99.650902 110.450996
-4.466820 -99.699799 110.533997
-4.254340 -99.723396 110.640999
-4.053380 -99.804199 110.789001
-3.878430 -99.950798 110.914001
-3.678470 -100.033997 111.084999
-2.698850 -101.193001 110.862999
-2.929910 -101.126999 111.044998
-3.148740 -100.958000 110.926003
-3.271190 -100.810997 111.179001
-3.326410 -100.615997 111.335999
-3.439330 -100.405998 111.258003
-2.860460 -101.281998 111.625000
-3.046970 -101.060997 111.624001
-3.196340 -100.824997 111.508003
-3.240540 -100.543999 111.551003
-3.328410 -100.282997 111.468002
-2.788420 -99.237602 112.108002
-2.978640 -99.498703 111.792000
-3.215960 -99.817902 111.542999
-32.850101 -110.996002 104.584000
-32.593300 -110.836998 104.872002
-32.447899 -110.761002 105.003998
-32.313202 -110.681999 105.128998
-32.310600 -110.542999 105.278999
-32.128700 -110.595001 105.475998
-33.775299 -108.333000 105.016998
-33.738899 -108.732002 105.061996
-33.611500 -109.134003 105.106003
-33.384102 -109.523003 105.140999
-33.056198 -109.848000 105.377998
-32.710499 -110.146004 105.513000
-32.376900 -110.404999 105.530998
-33.119202 -108.877998 109.170998
-33.138302 -108.949997 108.828003
-33.118801 -109.147003 108.516998
-33.041000 -109.344002 108.239998
-32.960701 -109.523003 107.954002
-32.866501 -109.678001 107.632004
-32.745800 -109.845001 107.255997
-32.528000 -110.053001 106.790001
-32.286999 -110.319000 106.301003
-32.181301 -110.481003 105.821999
-33.091202 -109.093002 109.040001
-33.059399 -109.250999 108.787003
-32.964699 -109.420998 108.553001
-32.862400 -109.595001 108.300003
-32.704700 -109.746002 108.019997
-32.529900 -109.903999 107.694000
-32.341801 -110.098000 107.303001
-32.119202 -110.359001 106.844002
-31.943501 -110.573997 106.523003
-31.991199 -110.584999 106.128998
-31.903999 -110.683998 105.872002
-31.837999 -110.781998 105.685997
-31.639099 -110.902000 106.427002
-31.770500 -110.792999 106.056999
-31.992300 -110.643997 105.653999
-30.343500 -97.122803 95.968498
-30.072100 -97.197098 95.800201
-29.745399 -97.292198 95.684303
-29.401300 -97.356003 95.639999
-30.303699 -99.050003 95.767601
-30.026300 -98.873703 95.737602
-29.867100 -98.289497 95.721298
-29.603100 -98.051903 95.721703
-29.566700 -97.679199 95.689003
-26.959600 -97.583900 96.825699
-27.399799 -97.741203 96.592697
-27.976000 -97.855301 96.317802
-28.377600 -97.546898 95.993797
-28.749500 -97.358398 95.701897
-29.113001 -97.577904 95.699303
-26.957600 -102.595001 96.547699
-27.145599 -102.448997 97.010399
-27.430700 -102.492996 97.062401
-27.552299 -102.346001 97.221199
-27.617201 -102.129997 97.301300
-28.059601 -102.752998 96.633598
-27.994200 -102.580002 96.778503
-27.880400 -102.410004 96.948799
-27.746599 -102.279999 97.123398
-30.720501 -100.689003 95.763397
-30.363300 -100.839996 95.631699
-30.063000 -101.071999 95.674103
-29.845301 -101.435997 95.744797
-29.344400 -101.491997 95.896896
-28.831600 -101.518997 96.153503
-28.426001 -101.791000 96.460403
-28.145300 -102.005997 96.774597
-27.769501 -102.037003 97.166397
-30.146601 -99.722504 95.747200
-29.797001 -100.057999 95.758102
-29.452200 -100.356003 95.799797
-29.173000 -100.889999 95.947304
-28.717199 -100.905998 96.210701
-28.326200 -101.244003 96.501999
-28.104300 -101.597000 96.760696
-27.860901 -101.753998 97.069801
-26.786900 -98.326202 97.029297
-26.722401 -98.657402 97.198898
-26.837099 -99.002800 97.156303
-27.005600 -99.346703 97.084396
-26.946199 -99.623199 97.257500
-27.031401 -99.963203 97.264801
-27.107201 -100.293999 97.314301
-27.265400 -100.683998 97.398598
-27.454500 -101.113998 97.452599
-27.608000 -101.513000 97.362900
-27.632799 -101.857002 97.354401
-27.323000 -101.754997 97.807098
-27.335600 -101.982002 97.660500
-27.479900 -102.021004 97.495903
-28.296700 -102.980003 96.406700
-28.528299 -102.894997 96.380501
-28.775801 -102.845001 96.301003
-29.089100 -102.829002 96.191704
-29.467699 -102.842003 96.154900
-29.865900 -102.926003 96.157501
-30.253401 -103.054001 96.275002
-30.167000 -103.804001 96.510803
-30.231300 -103.459999 96.443703
-30.996300 -101.278000 95.816299
-30.853201 -101.581001 95.846199
-30.705700 -101.929001 95.931198
-30.560900 -102.335999 96.051697
-30.198099 -102.630997 96.087898
-31.859800 -101.959999 96.988800
-31.696400 -102.220001 96.785400
-31.390100 -102.421997 96.576401
-30.995399 -102.594002 96.362099
-30.623501 -102.800003 96.275703
-17.471500 -112.195999 118.307999
-17.840500 -112.348000 118.550003
-18.284300 -112.454002 118.676003
-18.325300 -112.828003 118.897003
-18.830400 -113.253998 119.002998
-18.990101 -111.550003 117.130997
-18.798800 -111.660004 117.308998
-18.928801 -111.880997 117.616997
-18.676701 -111.974998 117.991997
-18.827499 -112.195999 118.241997
-18.750500 -112.369003 118.527000
-18.673901 -112.625999 118.733002
-17.202200 -112.793999 118.674004
-17.522699 -112.734001 118.728996
-17.905001 -112.714996 118.820999
-18.352200 -113.204002 119.040001
-20.085199 -114.389000 118.396004
-19.869801 -114.148003 118.565002
-19.577000 -113.852997 118.778000
-19.226101 -113.874001 118.995003
-18.925200 -113.620003 119.068001
-16.439100 -115.903000 120.163002
-16.670099 -115.487999 120.370003
-16.631100 -115.120003 120.474998
-16.947001 -114.815002 120.460999
-17.219999 -114.514000 120.394997
-17.452499 -114.289001 120.226997
-17.531200 -114.010002 119.982002
-17.652300 -113.708000 119.627998
-18.822201 -115.633003 120.125999
-18.669100 -115.300003 120.120003
-18.499100 -114.959000 120.086998
-18.309700 -114.610001 119.989998
-18.101299 -114.271004 119.847000
-17.875401 -113.961998 119.730003
-15.802900 -114.516998 120.528000
-16.129601 -114.279999 120.517998
-16.417999 -113.987999 120.450996
-16.777901 -114.050003 120.384003
-16.967899 -113.771004 120.098999
-17.299101 -113.775002 119.896004
-19.990200 -114.624001 118.667000
-19.706900 -114.419998 118.833000
-19.432899 -114.255997 118.985001
-19.153601 -114.225998 119.147003
-18.672001 -114.171997 119.382004
-18.399401 -113.893997 119.279999
-18.164700 -113.912003 119.490997
-18.530399 -113.524002 119.129997
-18.195299 -113.598000 119.233002
-17.921200 -113.693001 119.377998
-6.629930 -135.528000 114.209999
-6.425480 -135.404007 114.355003
-6.219310 -135.541000 114.334999
-5.970240 -135.518997 114.414001
-5.803150 -135.373993 114.528000
-5.541450 -135.235001 114.678001
-5.416000 -135.850006 114.724998
-5.320020 -135.710999 114.570000
-5.330010 -135.477997 114.592003
-5.726720 -135.608994 114.469002
-5.534860 -135.522003 114.527000
-26.443701 -111.598999 116.495003
-26.270399 -111.777000 116.199997
-26.049500 -111.903000 115.834000
-25.891701 -111.916000 115.419998
-25.703100 -111.875999 115.043999
-25.528299 -111.833000 114.742996
-25.286100 -111.892998 114.445999
-24.030500 -111.782997 115.003998
-24.255199 -111.807999 114.971001
-24.490101 -111.839996 114.867996
-24.646000 -111.877998 114.991997
-24.743099 -111.861000 114.772003
-24.971800 -111.860001 114.697998
-25.184000 -111.858002 114.592003
-26.718901 -111.386002 114.032997
-26.383101 -111.461998 114.125000
-26.127701 -111.597000 114.408997
-25.865601 -111.681000 114.249001
-25.640400 -111.758003 114.425003
-25.408199 -111.823997 114.545998
-26.564100 -112.843002 112.401001
-26.461100 -112.652000 112.514999
-26.409100 -112.474998 112.678001
-26.344400 -112.356003 112.907997
-26.440100 -112.012001 112.956001
-26.761801 -111.486000 113.727997
-26.613400 -111.559998 113.467003
-26.490700 -111.663002 113.273003
-26.388599 -111.876999 113.180000
-25.476000 -111.851997 114.322998
-25.512600 -112.040001 114.210999
-25.723801 -112.011002 114.036003
-25.911501 -112.012001 113.827003
-26.084400 -112.014000 113.605003
-26.238501 -111.978996 113.385002
-26.811100 -113.428001 113.438004
-26.455400 -113.227997 113.582001
-26.127300 -113.028000 113.652000
-25.869900 -112.883003 113.629997
-25.779200 -112.661003 113.728996
-26.719101 -113.073997 112.516998
-26.506599 -112.886002 112.660004
-26.371700 -112.866997 112.949997
-26.228500 -112.857002 113.186996
-26.090900 -112.655998 113.321999
-25.936399 -112.697998 113.519997
-25.297199 -112.066002 114.377998
-25.548300 -112.343002 114.098999
-25.766899 -112.346001 113.884003
-21.219400 -112.792000 116.549004
-20.987700 -112.825996 116.603996
-20.749901 -112.875000 116.648003
-20.531900 -112.930000 116.733002
-20.366899 -112.799004 116.726997
-19.173300 -113.147003 118.839996
-19.305599 -112.942001 118.650002
-19.528099 -112.787003 118.337997
-19.767099 -112.693001 117.894997
-19.985800 -112.782997 117.513000
-20.107000 -112.816002 117.162003
-20.224600 -112.788002 116.915001
-19.227200 -111.448997 117.025002
-19.638901 -111.513000 116.960999
-19.868000 -111.647003 116.917999
-20.141600 -111.725998 116.855003
-18.827600 -112.912003 118.863998
-19.100300 -112.650002 118.585999
-19.191999 -112.422997 118.291000
-19.447500 -112.389999 117.941002
-19.534401 -112.235001 117.491997
-19.651300 -112.193001 117.200996
-19.741199 -112.072998 117.015999
-19.912901 -111.958000 116.914001
-20.299999 -112.586998 116.750999
-20.182400 -112.363998 116.810997
-20.171101 -112.099998 116.824997
-21.443199 -112.753998 116.489998
-21.307699 -112.588997 116.446999
-21.225700 -112.294998 116.445999
-20.962900 -112.151001 116.553001
-20.811100 -111.735001 116.655998
-20.592600 -111.661003 116.737000
-20.531601 -111.362999 116.842003
-20.380699 -111.554001 116.810997
-21.559401 -112.650002 116.397003
-21.472500 -112.411003 116.374001
-21.491100 -112.079002 116.336998
-21.529301 -111.748001 116.320999
-21.428600 -111.513000 116.399002
-21.430201 -111.373001 116.525002
-22.522499 -111.278000 117.473999
-22.193600 -111.300003 117.365997
-21.841200 -111.337997 117.197998
-21.551500 -111.351997 116.942001
-20.723400 -111.424004 116.759003
-20.910000 -111.472000 116.680000
-21.090900 -111.496002 116.584999
-21.255800 -111.419998 116.551003
-12.893900 -139.085999 110.508003
-12.901600 -138.968994 110.211998
-12.951400 -138.779007 110.038002
-11.933600 -139.380997 108.530998
-12.279900 -139.287994 108.731003
-12.421200 -139.266006 109.115997
-12.606200 -139.173996 109.380997
-12.749800 -139.048996 109.610001
-12.852200 -138.921005 109.839996
-12.321100 -136.757004 109.730003
-12.550300 -137.143005 109.596001
-12.759300 -137.481003 110.017998
-12.890100 -137.964996 109.908997
-12.977900 -138.548004 110.044998
-13.074300 -138.162003 110.748001
-13.094700 -138.554001 110.646004
-13.025200 -138.684998 110.331001
-12.000700 -139.306000 108.105003
-12.267500 -139.223999 108.365997
-12.551000 -139.121002 108.538002
-12.747200 -138.931000 108.447998
-12.911800 -138.841003 108.667999
-12.933500 -138.615997 108.580002
-12.233400 -136.729004 108.400002
-12.395300 -137.110992 108.417999
-12.628500 -137.643005 108.371002
-12.835000 -138.084000 108.554001
-12.928700 -138.410004 108.681000
-12.916800 -138.656998 109.740997
-12.884100 -138.813004 109.509003
-12.917600 -138.703003 109.186996
-12.956400 -138.660004 108.884003
-3.174630 -85.984001 126.790001
-3.166720 -86.079399 126.547997
-3.284780 -86.019203 126.309998
-3.583490 -85.852898 126.122002
-3.691800 -85.998100 125.727997
-3.924480 -85.945099 125.475998
-4.054970 -85.958504 125.231003
-4.270860 -85.819000 125.110001
-3.259260 -85.423897 127.081001
-3.387750 -85.448898 126.904999
-3.568730 -85.477501 126.669998
-3.786210 -85.532997 126.348999
-3.986320 -85.664803 125.903999
-4.196190 -85.684097 125.577003
-4.174090 -85.809402 125.331001
-4.718850 -85.589203 124.672997
-4.547350 -85.711197 124.800003
-4.347280 -85.862602 124.914001
-2.845200 -87.135002 125.899002
-2.901690 -86.933502 125.837997
-3.107430 -86.832802 125.542000
-3.161140 -86.197502 126.747002
-3.120320 -86.286003 126.539001
-3.069490 -86.483498 126.403999
-3.050200 -86.485100 126.177002
-3.082600 -86.537003 125.920998
-3.006910 -86.761002 125.764000
-4.112220 -86.006897 125.056999
-3.909040 -86.112999 125.210999
-3.825570 -86.325996 125.178001
-3.618520 -86.385201 125.334999
-3.394260 -86.500298 125.481003
-3.183150 -86.625900 125.621002
-5.303980 -95.859703 112.955002
-5.493470 -95.643303 112.873001
-5.663250 -95.474998 112.849998
-5.593030 -95.187897 112.768997
-5.696360 -94.979401 112.712997
-5.645350 -94.762100 112.677002
-5.825140 -94.632301 112.653000
-5.838360 -94.421700 112.597000
-2.950110 -95.682701 112.864998
-3.078720 -95.452400 112.928001
-3.249890 -95.296204 113.028999
-4.971590 -95.813202 113.072998
-4.547900 -95.717003 113.193001
-4.109450 -95.590103 113.264000
-3.750070 -95.489304 113.251999
-3.457590 -95.399902 113.169998
-2.812410 -95.407204 112.375000
-2.931760 -95.422501 112.689003
-48.450901 -119.884003 97.036201
-48.513100 -120.214996 97.177597
-48.663300 -120.155998 97.357300
-48.487999 -119.975998 97.201500
-48.523201 -120.086998 97.348297
-48.537300 -120.046997 97.571800
-48.677700 -120.316002 97.734100
-48.656300 -120.261002 97.542503
-48.562599 -120.285004 97.349098
-48.695099 -120.427002 98.092697
-9.595640 -135.182007 113.630997
-9.752890 -135.134003 113.489998
-9.733330 -135.270996 113.702003
-2.479860 -92.965698 121.268997
-2.466250 -92.928596 121.443001
-2.318340 -92.912498 121.567001
-2.312100 -92.876099 121.781998
-2.798780 -92.825996 122.220001
-2.565350 -92.851402 121.942001
-2.045870 -92.791901 122.120003
-2.270000 -92.834999 122.039001
-2.086570 -92.845901 121.889000
-30.140301 -132.429001 107.680000
-30.030300 -133.014008 107.546997
-29.885700 -133.570999 107.407997
-29.837500 -134.018997 107.271004
-29.717100 -134.281006 107.177002
-29.507900 -133.854996 107.299004
-29.858200 -134.520004 107.150002
-19.119900 -110.137001 117.900002
-19.223200 -110.074997 117.500000
-19.479700 -110.057999 117.085999
-19.289700 -109.926003 116.795998
-19.323500 -110.003998 116.384003
-19.320200 -110.082001 116.209000
-20.821699 -110.632004 116.648003
-20.535000 -110.561996 116.684998
-20.363701 -110.530998 116.488998
-20.111401 -110.406998 116.456001
-19.888800 -110.314003 116.392998
-19.692900 -110.224998 116.310997
-19.515699 -110.111000 116.352997
-18.956900 -110.987999 116.242996
-19.225700 -110.517998 116.169998
-19.270201 -110.285004 116.178001
-20.739401 -110.988998 116.093002
-20.458900 -111.085999 116.156998
-20.295601 -110.835999 116.239998
-20.009600 -110.800003 116.240997
-19.949900 -110.517998 116.281998
-19.719000 -110.421997 116.244003
-19.500799 -110.264999 116.217003
-19.115200 -109.953003 116.319000
-19.179199 -109.890999 116.532997
-18.920500 -109.828003 116.449997
-18.599701 -109.723999 116.908997
-27.201200 -100.964996 100.716003
-27.022900 -101.111000 100.043999
-27.148600 -100.952003 100.207001
-27.234100 -101.150002 100.342003
-27.301201 -100.995003 100.522003
-25.916500 -101.573997 97.529099
-26.297300 -101.871002 97.339897
-26.673000 -102.102997 97.287003
-26.773399 -102.347000 96.885201
-27.205799 -101.943001 97.810204
-27.020599 -101.947998 97.848297
-26.874001 -102.032997 97.620300
-25.125099 -134.684006 106.113998
-25.338600 -134.811996 106.007004
-25.592600 -134.742996 106.045998
-26.260599 -134.593002 106.252998
-25.997700 -134.533005 106.172997
-25.859200 -134.723007 106.084999
-16.733000 -111.713997 116.429001
-16.901199 -111.595001 116.195999
-17.129601 -111.416000 116.073997
-17.425301 -111.139000 116.029999
-17.853001 -110.902000 116.093002
-18.420500 -110.986000 116.214996
-17.819901 -111.362000 116.237999
-17.345301 -110.615997 115.847000
-17.080299 -110.235001 115.595001
-16.973499 -109.556000 115.287003
-16.841700 -109.320000 115.147003
-14.912600 -110.730003 115.676003
-15.107000 -110.726997 115.443001
-15.318400 -110.704002 115.292000
-15.455200 -110.584000 115.146004
-14.105800 -108.832001 114.752998
-14.060500 -109.285004 114.912003
-14.483300 -109.653000 114.883003
-14.927500 -109.796997 114.799004
-15.076800 -110.172997 114.908997
-15.330500 -110.379997 114.991997
-16.544800 -111.597000 116.430000
-16.398100 -111.421997 116.277000
-16.244699 -111.257004 116.113998
-16.094601 -111.092003 115.949997
-15.918300 -110.964996 115.760002
-15.766300 -110.870003 115.526001
-15.651100 -110.724998 115.329002
-16.893400 -110.763000 115.719002
-16.661501 -110.491997 115.511002
-16.320900 -110.723999 115.504997
-16.004400 -110.693001 115.371002
-15.865300 -110.535004 115.191002
-16.631701 -109.570999 115.072998
-16.332100 -109.890999 115.033997
-16.006800 -110.211998 115.042999
-15.663000 -110.411003 115.046997
-4.364710 -93.711403 111.816002
-4.166620 -93.865097 111.822998
-3.992960 -94.015503 111.790001
-3.934110 -94.222702 111.906998
-3.807240 -94.411201 111.972000
-3.628750 -94.556602 111.974998
-5.156410 -95.497398 112.133003
-4.778510 -95.281998 112.258003
-4.395510 -95.111099 112.403999
-4.201440 -94.821404 112.370003
-3.991100 -94.634003 112.278999
-3.808350 -94.579002 112.134003
-3.550240 -95.547401 111.303001
-3.518660 -95.153503 111.414001
-3.322260 -95.154404 111.723000
-3.409530 -94.909500 111.831001
-3.551430 -94.689499 111.751999
-4.191750 -94.325302 110.769997
-3.933450 -94.375198 111.059998
-3.787870 -94.383301 111.330002
-3.733420 -94.345703 111.579002
-3.669070 -94.491302 111.763000
-4.252510 -93.510696 111.660004
-4.131160 -93.644997 111.655998
-3.999100 -93.801697 111.639000
-4.152820 -93.427597 111.238998
-4.123550 -93.411797 111.485001
-4.036580 -93.624100 111.433998
-3.763770 -94.309799 111.795998
-3.830130 -94.156799 111.700996
-3.878360 -93.976196 111.613998
-4.989130 -95.801804 112.232002
-4.583470 -95.577599 112.389999
-4.208060 -95.389503 112.575996
-3.863770 -95.363297 112.752998
-3.632380 -95.167503 112.768997
-3.442160 -95.068100 112.675003
-3.253440 -95.113998 112.635002
-3.580710 -94.700500 112.162003
-3.477220 -94.851799 112.325996
-3.320310 -95.005898 112.456001
-4.816310 -96.107597 112.345001
-4.378370 -95.884499 112.535004
-4.067980 -96.158302 112.724998
-3.564530 -96.141502 112.939003
-3.333540 -96.179398 112.980003
-3.302470 -95.215401 112.783997
-3.213940 -95.372597 112.913002
-3.341140 -95.571297 112.958000
-3.434170 -95.844704 112.968002
-28.295700 -116.962997 112.599998
-28.422400 -116.584000 112.773003
-28.227200 -116.734001 113.064003
-28.077600 -116.746002 113.366997
-27.480499 -117.334000 113.861000
-27.737900 -117.247002 113.495003
-27.904699 -116.862000 113.588997
-28.146400 -116.042999 113.242996
-28.174299 -116.231003 113.325996
-28.159599 -116.480003 113.355003
-27.132999 -116.577003 114.447998
-27.317801 -116.505997 114.283997
-27.517700 -116.452003 114.107002
-27.661600 -116.670998 114.042999
-27.841999 -116.597000 113.823997
-27.991699 -116.532997 113.593002
-19.186800 -136.389008 97.133400
-19.210100 -136.559006 97.409798
-19.088600 -136.509995 97.692001
-19.167999 -136.598999 97.571297
-19.339300 -136.494995 97.079300
-19.262699 -136.475006 97.253502
-2.041200 -102.177002 113.259003
-2.118740 -102.102997 113.056000
-2.229180 -101.989998 112.755997
-2.198520 -101.809998 112.718002
-24.513201 -97.706596 109.762001
-24.554399 -97.688301 109.310997
-24.361099 -97.571999 109.045998
-24.245899 -97.557198 109.349998
-24.956200 -97.236099 108.997002
-24.650200 -97.419403 109.079002
-33.047001 -139.212997 107.125000
-32.960400 -139.054001 107.361000
-32.839401 -138.951996 107.573997
-32.818401 -138.703003 107.731003
-32.727100 -138.423004 107.913002
-32.598900 -138.102005 108.149002
-32.413898 -137.841003 108.402000
-32.216202 -137.658005 108.598000
-31.399300 -137.742996 108.966003
-31.685600 -137.757996 108.921997
-31.973600 -137.705994 108.809998
-32.418598 -137.235992 108.031998
-32.341599 -137.462997 108.332001
-4.365550 -135.580002 115.002998
-4.473600 -135.473007 114.816002
-4.726320 -135.501007 114.776001
-5.175610 -135.820007 114.843002
-4.926150 -135.671997 114.804001
-5.194090 -135.322006 114.706001
-4.962640 -135.438995 114.723000
-5.260640 -139.292999 116.334000
-5.367000 -139.166000 116.545998
-5.118820 -139.233002 116.598999
-4.871960 -139.095993 116.947998
-6.151690 -138.789001 116.244003
-5.987990 -138.972000 116.308998
-5.738440 -138.962997 116.469002
-5.533110 -139.009995 116.592003
-5.333110 -139.003998 116.749001
-5.100990 -139.056000 116.860001
-4.433770 -138.246002 117.333000
-4.757850 -138.341003 117.292999
-4.744600 -138.684006 117.218002
-4.987290 -138.830994 117.074997
-7.310270 -135.134995 115.257004
-7.132080 -135.380005 115.208000
-7.850290 -135.455994 115.081001
-7.582670 -135.460007 115.183998
-7.339050 -135.444000 115.236000
-6.674740 -135.395004 115.362000
-6.924220 -135.412003 115.306999
-21.239100 -112.974998 116.778999
-21.278500 -113.222000 117.116997
-21.014299 -113.496002 117.363998
-20.791100 -113.710999 117.561996
-20.273399 -114.515999 118.204002
-20.395700 -114.398003 118.000000
-20.500099 -114.264000 117.850998
-20.504200 -114.022003 117.737999
-20.775600 -113.968002 117.711998
-19.261700 -113.476997 118.896004
-19.551800 -113.295998 118.628998
-19.823299 -113.155998 118.277000
-20.100700 -113.505997 118.075996
-20.336399 -113.740997 117.824997
-20.527100 -113.783997 117.597000
-20.345800 -112.957001 116.870003
-20.465599 -113.084000 116.924004
-20.524500 -113.231003 117.100998
-20.552799 -113.410004 117.264000
-20.675501 -113.546997 117.399002
-26.620800 -111.848999 110.112999
-26.668501 -111.776001 109.893997
-26.587099 -111.583000 109.791000
-26.746599 -111.134003 110.429001
-26.585100 -111.320000 110.330002
-26.561001 -111.389999 110.129997
-26.579100 -111.445000 109.947998
-27.329800 -110.845001 110.169998
-27.016300 -110.922997 110.073997
-26.787500 -111.050003 109.988998
-26.636700 -111.227997 109.972000
-26.607000 -111.335999 109.777000
-26.815500 -111.722000 108.544998
-26.656700 -111.583000 108.733002
-26.659100 -111.613998 109.002998
-26.677000 -111.647003 109.265999
-26.661100 -111.633003 109.514000
-26.676500 -111.551003 108.460999
-26.620701 -111.332001 108.390999
-26.569700 -111.370003 108.639000
-27.447701 -110.420998 108.899002
-27.159201 -110.466003 108.748001
-26.892700 -110.636002 108.839996
-26.660000 -110.886002 108.700996
-26.571301 -111.134003 108.793999
-26.593000 -111.453003 109.607002
-26.580000 -111.434998 109.377998
-26.558001 -111.416000 109.139000
-26.546301 -111.389999 108.889999
-26.198601 -111.587997 116.859001
-25.996401 -111.792000 116.609001
-25.828199 -111.941002 116.251999
-25.412600 -112.024002 116.251999
-23.948601 -111.380997 117.222000
-24.281799 -111.652000 116.986000
-24.658300 -111.830002 116.748001
-25.052401 -111.957001 116.491997
-24.119499 -111.763000 115.184998
-24.237600 -111.842003 115.463997
-24.614500 -111.958000 115.719002
-25.073999 -112.032997 115.929001
-25.217699 -111.879997 114.776001
-25.299900 -111.917000 115.067001
-25.426600 -112.000999 115.470001
-25.604799 -112.015999 115.855003
-12.065800 -137.287003 114.010002
-12.250100 -137.541000 114.135002
-12.424800 -137.876007 114.191002
-12.378600 -138.022003 114.467003
-12.921300 -138.727005 113.123001
-12.862800 -138.445007 113.292999
-12.728000 -138.485992 113.640999
-12.611000 -138.188995 113.891998
-12.527400 -138.291000 114.203003
-12.287400 -138.483002 114.714996
-12.419900 -138.386002 114.489998
-47.943199 -121.108002 96.809700
-48.019299 -121.294998 96.947601
-48.123501 -121.466003 97.047302
-48.270802 -121.279999 96.705200
-48.217899 -121.394997 96.891098
-48.286098 -121.869003 97.642998
-48.285099 -121.808998 97.482300
-48.238701 -121.710999 97.350502
-47.905800 -121.083000 97.037697
-47.990101 -121.280998 97.166603
-48.069599 -121.456001 97.250198
-48.491299 -121.918999 97.692398
-48.439800 -121.871002 97.533302
-48.441200 -121.820999 97.355698
-48.390499 -121.706001 97.179497
-48.200802 -121.603996 97.193001
-33.944000 -135.141998 104.117996
-33.796101 -135.259995 104.210999
-33.663200 -135.229996 104.356003
-33.537601 -135.259995 104.495003
-33.417198 -135.177994 104.625000
-33.277302 -135.186996 104.769997
-33.478001 -135.408997 104.593002
-33.359200 -135.339996 104.718002
-34.377300 -133.699005 105.233002
-34.155499 -134.037994 105.180000
-33.860699 -134.386993 105.083000
-33.464100 -134.710007 105.019997
-33.408199 -134.973007 104.801003
-32.590900 -135.287994 105.307999
-32.776699 -135.238007 105.200996
-32.971100 -135.203003 105.063004
-33.137299 -135.171997 104.903999
-33.110901 -135.740005 105.693001
-33.330700 -135.699005 105.383003
-33.174400 -135.556000 105.167000
-33.086300 -135.397995 104.994003
-33.235100 -135.373993 104.850998
-10.251000 -139.102005 114.833000
-10.367100 -138.927002 114.900002
-10.598100 -138.798996 114.899002
-10.738000 -138.539001 114.911003
-10.875600 -138.266006 114.888000
-11.156200 -138.024994 114.918999
-11.251800 -139.190002 114.874001
-11.382300 -138.962006 115.036003
-11.246100 -138.723999 115.058998
-11.078300 -138.455994 114.995003
-9.263820 -137.865005 116.246002
-9.466480 -137.876007 115.967003
-9.668230 -137.914993 115.627998
-9.894380 -137.990005 115.264999
-10.158700 -138.033005 114.954002
-10.442200 -138.091003 114.806999
-10.780200 -138.031006 114.806000
-11.795100 -137.143997 114.029999
-11.650500 -137.272003 114.360001
-11.491000 -137.447006 114.624001
-11.319200 -137.688004 114.810997
-9.363240 -135.983994 113.572998
-9.258680 -136.097000 114.023003
-9.117100 -136.209000 114.404999
-9.226900 -136.457993 114.755997
-6.921270 -135.779007 114.182999
-7.150160 -135.796005 114.117996
-7.421550 -135.888000 114.233002
-7.781630 -135.996002 114.435997
-8.275290 -136.052002 114.307999
-8.598710 -136.160004 114.531998
-8.891970 -136.313995 114.711998
-11.458900 -137.013000 114.022003
-11.060400 -136.878006 114.024002
-10.670000 -136.714996 114.077003
-10.113000 -136.707993 114.450996
-9.794140 -136.505005 114.487000
-9.458410 -136.380997 114.524002
-10.935500 -137.707001 114.711998
-10.593000 -137.636993 114.654999
-10.391300 -137.356995 114.600998
-10.070000 -137.106995 114.713997
-9.788980 -136.811996 114.757004
-9.543080 -136.595993 114.734001
-21.733999 -112.814003 116.556999
-21.682800 -112.515999 116.329002
-21.736200 -112.285004 116.258003
-21.847601 -111.985001 116.154999
-21.808399 -111.639999 116.152000
-21.956800 -111.463997 116.051003
-21.561199 -111.364998 116.398003
-21.807100 -111.348999 116.195999
-33.396301 -139.302994 106.829002
-33.633598 -139.205994 106.816002
-33.901199 -139.134003 106.808998
-34.174801 -139.123993 106.843002
-34.441799 -139.139008 106.867996
-34.694000 -139.069000 106.931000
-35.099998 -139.580002 106.018997
-34.971199 -139.507004 106.404999
-34.782398 -139.410995 106.648003
-34.605801 -139.279999 106.811996
-33.393002 -136.339996 106.496002
-33.712799 -136.593002 106.456001
-33.787399 -136.938995 106.554001
-34.057400 -137.317993 106.528999
-34.134701 -137.694000 106.661003
-34.375801 -137.994995 106.776001
-34.346298 -138.320007 106.857002
-34.634201 -138.533997 106.968002
-32.718498 -137.061996 107.494003
-33.048000 -137.429001 107.260002
-33.087399 -137.884003 107.288002
-33.442902 -138.078003 106.964996
-33.730801 -138.255997 106.837997
-34.015701 -138.410995 106.827003
-34.278099 -138.666000 106.903000
-34.402901 -138.931000 106.917999
-10.006300 -139.300995 116.067001
-9.970170 -139.033997 116.343002
-9.895710 -138.707993 116.591003
-9.768110 -138.356003 116.833000
-9.584840 -138.009995 117.015999
-9.437710 -137.651001 117.094002
-8.588170 -136.891998 117.120003
-8.936250 -137.061996 117.141998
-9.125570 -137.419998 117.216003
-9.925420 -137.957001 116.670998
-9.729730 -137.673004 116.842003
-8.360180 -138.681000 117.317001
-8.713770 -138.584000 117.327003
-8.979170 -138.222000 117.362000
-9.183120 -137.886002 117.262001
-10.884700 -137.210007 115.345001
-10.935600 -137.389999 115.480003
-10.804800 -137.563995 115.514000
-10.649300 -137.723999 115.553001
-10.555300 -137.865005 115.674004
-10.463200 -137.957001 115.856003
-38.239498 -95.011200 94.825104
-38.230000 -94.634598 94.806099
-38.349899 -94.450104 94.721497
-38.507702 -94.345398 94.688499
-38.634201 -94.263100 94.760002
-39.940300 -95.423599 95.348602
-39.706600 -95.284599 95.217400
-39.484001 -95.093300 95.192299
-39.274101 -94.917000 95.081596
-39.085800 -94.722702 95.029503
-38.903500 -94.564903 94.900803
-38.769600 -94.347099 94.919098
-38.770199 -94.177902 97.394501
-38.774700 -94.210098 97.016602
-38.699699 -94.100601 96.539200
-38.637299 -94.048401 95.874001
-38.668999 -94.127098 95.354500
-38.686600 -94.186203 95.059898
-38.657101 -94.753601 94.669800
-38.594799 -94.544296 94.681801
