-47.455299 -91.858704 99.472702
13.759700 -120.504997 130.985992
-37.418701 -117.438004 94.538597
-6.218250 -97.568604 113.140999
-30.938400 -103.973000 78.993103
-18.766100 -101.286003 119.417999
-12.402500 -136.955002 102.502998
-28.773001 -127.092003 103.180000
-26.681601 -101.557999 116.064003
-36.943100 -139.024002 106.132004
0.882691 -120.563004 112.579002
-28.849300 -124.837997 93.404198
-39.698399 -124.834999 98.138397
10.108400 -104.100998 109.594002
-31.178699 -98.938103 96.514503
-2.005960 -101.144997 107.650002
-26.462400 -93.187500 98.760696
-44.799702 -90.100899 82.707100
-18.855499 -124.059998 89.843002
-2.452210 -88.500397 125.521004
-51.482300 -119.274002 101.627998
-8.067480 -94.197197 109.341003
16.668900 -117.365997 130.212997
-41.598301 -112.972000 85.487297
-32.194099 -101.444000 110.801003
-48.574100 -123.116997 99.627602
-33.112400 -113.084000 95.856300
-36.942402 -110.791000 91.421204
-47.620602 -124.389000 98.516899
-33.793098 -111.860001 102.193001
-24.754499 -118.383003 115.831001
-52.358398 -126.107002 101.134003
-10.192600 -137.770996 114.875000
-19.195400 -137.285004 101.836998
16.136299 -123.138000 132.382996
-27.542601 -139.925003 109.399002
-4.014600 -92.271301 117.282997
0.111077 -83.630798 131.664993
-26.993601 -100.555000 104.406998
-34.113899 -112.130997 96.249901
-14.422600 -113.452003 120.620003
-31.870001 -125.801003 86.480797
-25.712999 -112.901001 111.782997
-51.968201 -130.621002 102.542000
-0.803899 -104.949997 115.070000
-1.478670 -92.520500 122.810997
5.140670 -82.570099 114.778000
5.648610 -109.260002 110.805000
-33.084900 -108.448997 97.720901
-22.067699 -99.122398 117.420998
18.927401 -111.442001 124.554001
1.622760 -83.278900 114.846001
-8.287000 -131.845993 114.441002
25.285299 -127.087997 127.930000
0.474650 -139.884003 113.959000
-6.775700 -132.251999 94.188202
-2.406370 -92.617996 111.251999
-49.122501 -96.909897 85.309601
-15.843700 -97.976501 118.217003
-30.900000 -113.945000 84.449799
13.955100 -128.686005 119.018997
-4.942870 -125.356003 90.601402
4.067060 -98.141800 122.930000
-46.128101 -108.508003 85.207199
-8.316470 -95.325104 112.940002
-12.338400 -113.654999 119.880997
12.028900 -123.570000 124.960999
-9.560820 -101.938004 118.580002
11.467000 -84.617699 127.989998
-16.149099 -98.195900 119.103996
-16.536200 -134.352005 109.551003
-27.582500 -123.935997 106.992996
-16.664700 -121.901001 90.138298
-7.464500 -124.244003 88.759499
-13.602700 -107.546997 120.366997
8.180460 -118.075996 129.024002
-27.801399 -133.311005 92.109596
-27.884899 -137.042999 108.886002
-31.233400 -104.911003 97.514198
-34.911999 -116.634003 90.936897
7.835070 -85.623001 130.423004
1.970750 -134.192993 109.136002
-14.406100 -136.925003 101.588997
2.908310 -78.164703 126.808998
3.221860 -111.055000 114.433998
-16.898001 -95.264999 107.258003
-29.670601 -108.745003 84.292999
-26.134800 -114.661003 113.894997
-37.430801 -93.173103 94.181801
-2.108590 -92.450996 120.728996
8.136490 -82.804001 128.998001
-38.563599 -132.255005 87.332603
-20.608900 -97.258904 110.773003
23.680599 -114.619003 129.061005
-38.724300 -92.173203 80.806396
15.186000 -122.992996 130.653000
-5.878470 -97.054298 110.103996
-27.932699 -138.906998 92.582603
-37.136902 -129.863998 96.575203
7.779870 -106.334000 110.869003
8.403350 -111.935997 120.694000
-56.314400 -130.593994 93.227898
2.233960 -80.037300 128.322006
-38.466801 -92.347801 95.312500
-44.795300 -92.456902 100.112999
22.104300 -121.010002 134.535004
-32.426701 -94.939903 81.469101
-25.794100 -137.229004 107.934998
-43.284401 -131.589005 95.778801
4.471970 -115.959000 115.751999
0.417162 -92.856499 124.385002
-43.889301 -86.739098 95.376198
-22.164200 -139.647995 94.577797
-43.108799 -99.352203 92.909798
22.397100 -125.012001 130.755997
-35.522598 -109.582001 75.742500
-41.150902 -95.818497 94.360901
-32.719398 -114.292000 91.891602
-11.774800 -107.142998 93.008301
18.584900 -112.027000 127.004997
5.255060 -114.791000 116.447998
-28.202101 -128.419006 105.553001
-20.744600 -116.748001 119.494003
-32.829300 -108.925003 105.206001
-1.912630 -139.473007 113.526001
0.049966 -81.042099 119.466003
-45.837601 -117.721001 95.660202
6.535100 -92.099701 128.832993
13.652200 -87.584602 123.975998
-49.154202 -92.997803 86.070900
-2.948820 -118.042000 97.049103
-2.437160 -86.635696 115.163002
22.418400 -115.171997 115.689003
-30.705099 -140.822006 95.480904
-28.646500 -101.448997 106.179001
-30.812901 -103.107002 101.116997
-5.510000 -99.764999 113.309998
-47.788300 -131.889008 97.359703
-29.025801 -110.523003 84.913902
-14.828000 -99.914398 99.163200
-29.060400 -111.455002 112.727997
-3.767610 -92.779198 117.361000
-4.648990 -98.259598 113.780998
-48.817501 -119.981003 97.364304
-17.456699 -119.739998 117.146004
-3.442140 -130.744003 91.208801
11.162100 -123.044998 123.456001
-29.095400 -103.384003 96.190498
21.806801 -117.175003 113.800003
-3.904630 -98.264603 113.916000
-25.908501 -100.542000 114.425003
-32.456100 -120.447998 96.690201
-47.390202 -92.785103 98.089203
6.239810 -117.198997 121.257004
15.779600 -124.043999 129.873993
-30.962099 -135.923004 94.334702
-25.463600 -100.170998 116.972000
-33.086102 -91.805801 89.828598
-21.240499 -136.669006 94.834198
-16.827600 -126.364998 88.797600
-32.396999 -100.282997 92.929199
-1.160870 -90.967697 127.648003
-1.066510 -104.322998 102.829002
-4.379000 -90.297501 125.608002
-31.487101 -112.375999 83.115700
-31.947500 -109.115997 110.074997
-21.302200 -115.565002 118.570999
-28.762300 -130.656006 91.831001
14.884200 -120.297997 131.147003
-11.089100 -135.865005 111.018997
-24.002899 -111.309998 114.344002
-5.651670 -81.788002 122.320000
-25.561501 -125.930000 106.811996
-27.395399 -119.262001 112.536003
16.072100 -91.133499 122.572998
5.732320 -109.828003 109.528000
-32.846401 -85.453300 91.886398
-4.559810 -126.986000 113.693001
-42.820301 -124.294998 81.854500
-26.305700 -109.111000 119.543999
8.517250 -109.245003 114.676003
-47.705700 -86.648697 90.137199
1.260050 -86.978699 110.799004
-10.852500 -121.440002 91.703003
-10.283700 -138.287994 114.916000
-4.590650 -91.984001 122.318001
7.123630 -118.416000 121.385002
-22.129400 -136.169998 104.251999
-11.009100 -126.436996 90.968201
-7.673850 -120.587997 94.286903
-34.452099 -104.858002 75.622200
-4.612570 -94.820198 112.244003
-13.686700 -138.800995 108.820999
-11.623000 -136.156006 111.978996
-6.909900 -104.347000 118.862999
-30.915100 -123.179001 97.450500
19.310600 -110.712997 113.456001
-7.742620 -94.042702 110.047997
-3.499970 -138.507996 117.844002
-48.348301 -95.279602 90.658997
-19.504200 -112.265999 116.192001
-47.566700 -127.848999 98.637901
-21.306200 -104.675003 93.269402
-20.504200 -114.022003 117.737999
-32.718300 -127.198997 94.759499
-50.048199 -116.862999 91.764999
-40.133400 -119.788002 98.684402
-17.744301 -127.679001 113.069000
-5.284820 -135.014999 114.912003
11.866400 -95.196404 107.176003
-33.670101 -129.779007 93.785797
-35.664700 -133.298004 104.764000
23.962200 -120.007004 131.912994
-28.237801 -129.001999 105.540001
14.668600 -126.351997 126.214996
-50.364300 -119.628998 97.405701
-8.426910 -139.311996 99.626602
17.928200 -110.044998 123.362000
-48.299999 -131.097000 97.199600
-5.291010 -99.728500 105.379997
-17.835300 -109.160004 90.875000
-39.702202 -105.722000 93.115097
-31.308800 -101.674004 99.287804
-31.420500 -127.359001 103.764999
-20.642700 -134.110001 109.064003
-12.067000 -116.916000 91.415703
-30.619801 -111.783997 84.088898
0.033532 -139.449997 111.702003
-37.046600 -139.272003 101.535004
-6.285900 -99.185898 114.667999
-23.803101 -99.789398 118.568001
-28.006901 -130.126007 105.124001
16.394899 -126.485001 114.823997
-56.686100 -131.751999 93.232597
-37.714699 -138.701004 103.375000
-2.852910 -80.906601 120.056000
-31.539101 -115.531998 90.001297
-32.559502 -97.768402 96.263702
-45.780800 -95.488899 95.072601
-31.782101 -129.057999 105.362000
-32.712299 -130.076004 106.976997
-0.981019 -86.223198 134.641998
-11.212000 -130.695007 89.054802
-34.221600 -118.421997 86.574799
-12.139700 -108.454002 116.226997
8.804200 -119.877998 128.031998
22.502100 -127.952003 122.103996
-4.077940 -78.355499 122.523003
-33.672401 -107.329002 99.608101
-10.241300 -132.834000 91.210503
18.963301 -128.701004 129.806000
-0.102280 -102.473000 115.114998
-27.480499 -117.334000 113.861000
-8.548720 -95.217796 111.251999
-23.380501 -118.227997 117.836998
-4.011520 -125.349998 89.512199
-6.541610 -93.953598 111.917000
-21.820101 -137.356995 103.822998
-31.439699 -105.839996 84.982399
-32.765900 -116.750999 94.566399
-26.060801 -99.893204 104.539001
-45.661201 -107.776001 81.515999
-41.550900 -116.875999 94.845703
-30.002701 -96.412498 93.635201
-20.431601 -95.270203 108.286003
-36.089699 -139.358994 104.277000
-31.596399 -109.765999 106.910004
-2.915660 -100.635002 113.124001
-5.039710 -79.075699 124.333000
-31.977900 -97.029800 96.366997
-7.179820 -95.423401 114.350998
-44.150902 -91.221802 82.868500
-10.978900 -128.240997 88.131104
0.708844 -80.451103 128.636993
-46.491501 -132.052002 96.202400
-27.614201 -107.574997 90.622002
-14.388800 -135.544998 108.582001
-29.297400 -111.080002 84.538101
13.435200 -93.233200 109.179001
-26.134800 -95.154297 98.956001
-47.295399 -85.927498 87.393097
6.194470 -89.334801 130.860992
-26.903299 -96.216599 98.250198
8.964500 -117.616997 123.859001
-31.264900 -103.704002 88.979698
-22.666700 -139.694000 103.830002
15.518100 -88.831398 120.537003
-3.931690 -92.095596 116.577003
-33.313999 -140.371994 106.348999
-5.948500 -135.401001 99.354103
1.837530 -122.108002 110.157997
-33.674000 -118.238998 85.654503
-2.880020 -134.451004 99.396599
-1.385880 -95.568497 120.654999
-39.018101 -117.740997 84.826698
15.189900 -120.291000 132.085999
12.679100 -103.260002 110.271004
-30.754400 -97.473396 85.186600
-12.547800 -106.695999 120.644997
-42.549599 -101.415001 92.918503
-6.397170 -91.986397 109.994003
-6.752410 -124.390999 93.004997
-1.567440 -82.749901 116.720001
-33.270199 -103.817001 109.922997
-27.698099 -101.337997 99.365097
-0.157614 -100.263000 117.081001
-23.925800 -125.035004 108.315002
-4.064180 -97.280403 110.968002
-43.993000 -93.037300 100.767998
-42.558998 -91.800903 81.166496
-31.917601 -100.238998 77.804802
-42.797798 -126.691002 97.637398
-4.785560 -139.425995 100.156998
-30.397400 -100.315002 109.152000
-31.209999 -100.417000 98.933701
-48.442699 -96.951599 81.936600
-52.164700 -125.658997 101.191002
-50.679298 -116.216003 91.761101
-30.686800 -120.486000 104.431000
-7.227720 -97.433197 113.874001
-0.572576 -84.373398 132.677994
-31.820101 -108.734001 111.288002
-20.902800 -128.856003 110.819000
-31.327101 -105.098999 88.668404
-46.399300 -85.544998 88.772202
-34.776299 -99.977699 93.339302
-5.743400 -85.061996 123.373001
-44.350601 -84.424004 88.200104
-30.322001 -140.847000 97.130402
-36.797401 -140.457001 100.657997
-7.334360 -101.538002 115.098999
-31.835400 -104.039001 104.353996
-6.446880 -138.406006 99.019096
-33.801201 -113.352997 78.883400
-11.445300 -108.165001 118.176003
-0.864177 -134.656998 113.747002
-6.888230 -111.661003 119.401001
3.139270 -108.130997 113.959999
-5.034240 -79.457397 122.285004
-27.245800 -125.191002 90.483101
-30.303699 -99.050003 95.767601
-48.362400 -93.953003 95.918098
0.387963 -138.722000 115.786003
-6.340420 -101.281998 101.971001
-30.228600 -108.968002 114.600998
-19.937201 -106.996002 121.441002
-5.663910 -135.425003 98.565399
-32.299999 -107.473000 97.235298
9.962310 -118.158997 108.177002
-31.529800 -114.172997 108.920998
5.563090 -107.999001 107.799004
-48.486301 -94.955002 84.528397
14.601300 -118.017998 129.977997
-8.476060 -98.976196 113.179001
-2.106780 -87.523697 124.848999
-44.194698 -102.884003 75.519600
-19.757000 -99.001801 116.183998
-4.825820 -140.039993 116.802002
5.924300 -81.796303 115.903999
-47.952202 -121.425003 101.557999
-27.584900 -140.440994 107.015999
-35.818501 -102.764000 75.119499
14.298000 -85.135101 119.153999
-28.230700 -94.994904 100.573997
19.157301 -115.513000 111.531998
-10.560500 -139.606995 104.352997
-40.077400 -120.239998 99.189102
-30.624100 -135.393005 93.432297
-3.006120 -93.824501 115.988998
-32.313599 -94.319901 86.622803
-29.601000 -99.178802 101.668999
-29.693001 -108.869003 115.524002
-37.955399 -92.849098 94.134102
-49.876801 -90.892799 91.178703
-23.182600 -98.341499 115.526001
4.293400 -109.553001 106.501999
-30.808399 -127.835999 102.931000
-31.177601 -109.393997 110.939003
14.704100 -123.759003 128.085999
-11.408600 -136.572006 102.359001
-28.979700 -139.671005 93.991302
-2.545960 -90.678101 130.981995
-23.191401 -135.522003 93.329903
-57.042599 -118.406998 93.189400
-10.927600 -100.393997 118.164001
-21.451401 -107.045998 121.897003
0.290965 -140.238007 106.724998
-3.819340 -85.893600 124.245003
-44.460602 -86.075897 95.682800
-31.214800 -113.723000 107.848999
-7.160020 -92.524803 109.755997
9.239170 -94.747002 125.517998
-52.973000 -120.651001 87.198502
-30.226900 -110.572998 109.109001
-24.255100 -116.806000 116.132004
-34.966000 -106.598999 92.382103
-29.746401 -132.367996 106.898003
-11.925400 -107.976997 116.859001
-30.232000 -116.171997 110.750999
-9.645890 -98.159302 111.532997
21.049000 -112.232002 128.561005
-9.632880 -138.539001 100.960999
-7.688860 -92.279404 110.010002
-30.076000 -100.805000 96.415398
23.151699 -118.061996 117.512001
-39.389000 -123.610001 98.010902
6.506710 -89.601997 130.444000
14.722500 -108.723000 120.322998
-3.920030 -136.962997 117.646004
-8.501480 -138.274994 100.377998
-27.669901 -93.748199 99.064903
-54.144901 -124.459000 88.225403
-46.414799 -103.931999 78.480598
-5.415620 -92.552200 121.537003
-33.202202 -134.007996 105.870003
-27.727699 -138.167007 110.182999
-38.402802 -91.097900 96.421204
1.958660 -90.806503 109.128998
-49.594799 -125.331001 98.319298
-33.971100 -109.035004 104.380997
-20.428801 -136.931000 102.405998
-43.663300 -110.526001 78.690598
-27.420799 -109.705002 88.910301
-43.486000 -109.710999 87.018204
-27.333599 -99.525002 106.474998
15.449800 -120.877998 111.304001
14.591900 -127.240997 124.889000
-41.744499 -105.700996 92.655899
-30.785700 -127.430000 101.467003
20.363001 -111.761002 114.791000
16.083599 -91.272400 112.315002
-5.081880 -84.861603 125.589996
-11.922400 -105.932999 119.630997
-1.059800 -139.641006 104.698997
-7.101630 -127.771004 114.373001
-52.120701 -127.016998 101.252998
-25.471701 -102.236000 97.595001
-52.424301 -124.182999 87.006897
1.390760 -102.940002 117.392998
-5.787580 -132.511993 94.223396
-13.460800 -101.500000 121.125000
-32.775600 -108.240997 110.851997
-4.100760 -85.235397 124.317001
-5.167860 -127.558998 112.823997
20.760900 -114.709999 130.481003
6.126310 -109.924004 109.813004
-3.607380 -88.519997 125.663002
-28.041201 -125.040001 90.600197
-9.324330 -107.790001 119.170998
-3.778800 -86.060402 127.857002
-7.923380 -104.919998 117.398003
-3.754620 -77.979202 124.792999
-35.447201 -100.894997 75.607002
-27.754900 -106.535004 90.817802
-31.964100 -122.129997 96.371201
-30.927799 -104.369003 114.723000
-0.758322 -134.893997 113.485001
-35.311298 -139.167007 106.849998
-19.695400 -139.945999 99.541603
-10.481800 -129.106003 88.734200
-33.516998 -115.304001 83.751404
-35.677200 -139.535995 98.310699
-42.418098 -123.753998 102.668999
21.684601 -126.445999 129.850998
-19.328400 -98.802299 115.783997
-31.955099 -91.415497 93.598198
-7.457330 -98.687798 109.857002
-41.900200 -99.974701 93.203201
22.969801 -115.731003 130.337006
14.383800 -88.775497 122.505997
-20.084400 -134.792007 107.316002
-49.698898 -126.941002 98.017403
-8.790060 -135.404999 99.197502
-13.795900 -134.181000 110.740997
-45.887798 -117.630997 102.129997
-30.793400 -106.244003 85.452202
-1.265790 -126.360001 110.549004
-48.808800 -90.808998 97.490501
-27.320499 -100.442001 100.884003
-26.095501 -134.740005 106.167000
-22.269800 -121.158997 113.084000
5.518870 -108.738998 111.278000
-0.765605 -139.210007 115.009003
-3.650500 -127.400002 90.664597
-19.568800 -99.789597 118.543999
-58.665199 -122.956001 94.343399
-7.572530 -139.072998 100.052002
-30.374100 -96.490799 95.950996
-32.968201 -93.616699 95.521698
-34.963299 -104.933998 75.335701
-32.638302 -91.717003 85.398300
-10.049500 -139.063004 100.335999
-31.229601 -103.139999 104.643997
-22.215300 -122.556999 111.705002
-12.743200 -139.276001 112.356003
-30.805401 -110.362999 107.578003
4.437800 -107.804001 105.473000
16.515800 -125.359001 127.838997
-41.493198 -96.144897 95.424797
-3.501060 -99.907204 112.876999
-9.337470 -139.492004 101.273003
-0.697782 -129.339005 113.518997
-15.203500 -107.820999 115.787003
-51.542198 -118.570000 100.976997
2.783580 -121.443001 105.986000
-23.035000 -140.483994 94.706001
-51.197102 -129.408997 103.009003
-36.636200 -128.617996 85.601799
-28.771400 -120.424004 86.146698
-20.657700 -108.494003 120.804001
-27.239901 -122.011002 107.723999
7.506040 -119.553001 126.767998
-23.452600 -99.404297 115.452003
-21.266199 -138.164001 96.566597
-55.563801 -133.714005 98.469498
-8.005170 -136.356995 99.890800
-6.438950 -131.143997 116.722000
-24.083300 -125.856003 89.569000
-29.684299 -99.372398 96.437401
-11.218800 -139.341003 114.632004
-8.357650 -88.856102 122.394997
6.083160 -92.269203 128.746002
-51.573200 -118.963997 96.665497
-27.044201 -106.653999 92.123299
-5.235270 -102.527000 115.163002
-32.229198 -129.373993 105.632004
-36.538700 -139.858002 105.091003
-36.255501 -129.983002 97.002998
-28.559000 -99.957603 108.577003
-51.284302 -118.848000 96.042999
-24.618099 -126.699997 90.203903
9.560600 -116.596001 129.231995
-42.994900 -132.093002 95.338097
-12.922400 -138.498001 109.415001
8.833170 -121.432999 123.456001
-6.052760 -138.548004 117.362000
-3.638070 -94.591499 111.512001
-31.550301 -140.080002 97.171898
-0.054795 -132.384995 114.389000
3.389160 -84.362701 132.072006
-30.720501 -100.689003 95.763397
-16.049900 -110.857002 115.563004
-13.284000 -98.515198 101.846001
-48.429798 -95.340698 84.173401
-30.263300 -126.086998 97.702904
-2.724880 -96.893700 111.731003
-56.172600 -121.093002 90.689903
-9.737270 -112.329002 119.801003
-43.228699 -92.559601 81.913101
-26.757700 -97.295303 96.964600
-13.554300 -108.373001 115.927002
-42.907200 -128.160995 97.954597
-30.386600 -124.586998 100.750000
-30.556900 -139.343002 108.380997
-47.745201 -118.606003 95.140198
6.137530 -108.119003 111.346001
-47.420200 -95.355904 92.983704
-30.811100 -130.139008 95.132896
-5.730150 -96.761902 112.392998
4.128580 -78.861198 120.553001
-5.149780 -99.632599 110.199997
-24.470900 -97.340897 108.875000
-11.254100 -138.167999 103.279999
-26.279499 -124.079002 107.037003
0.953476 -129.960007 106.138000
-27.514999 -114.473999 88.622002
-27.645201 -110.489998 107.917000
-19.695499 -118.440002 117.705002
-6.180640 -84.455597 119.154999
-8.831260 -101.396004 116.598999
-1.776680 -137.584000 100.906998
-26.626200 -97.538300 100.147003
-3.991530 -100.195999 114.084000
15.432400 -128.591003 123.089996
-26.603701 -111.833000 88.267998
-3.450620 -86.472900 127.152000
-33.726299 -113.682999 81.140701
-33.535198 -137.177002 107.805000
-25.297199 -112.066002 114.377998
4.528550 -109.651001 112.671997
0.543861 -98.823502 106.473999
20.009600 -112.695000 128.095993
-47.831699 -120.556999 96.321999
-55.761700 -132.699997 96.970398
-22.275200 -111.250999 117.830002
-43.564201 -123.730003 102.112000
-28.712099 -139.216995 109.521004
-8.394060 -126.998001 87.616997
3.379650 -122.253998 107.707001
1.447820 -132.714996 105.094002
-5.837930 -137.285995 116.262001
11.195200 -83.798500 124.722000
-33.379101 -97.086403 96.199600
-43.297001 -130.490997 95.722801
-43.120998 -100.542999 75.233398
-45.107899 -95.740700 94.487297
-45.581001 -117.815002 102.404999
-30.699499 -111.834999 106.485001
8.346680 -109.486000 112.148003
1.464360 -80.117996 117.388000
-42.705002 -134.365997 93.319298
-44.988701 -98.765701 92.062698
-21.912701 -136.910995 104.843002
-6.845510 -107.707001 95.033203
5.705240 -120.745003 110.989998
13.684100 -127.875999 119.372002
-57.724300 -126.891998 93.031403
-42.315201 -123.055000 102.078003
-20.595100 -95.530403 108.714996
-5.722920 -97.420998 113.686996
-41.969200 -88.509003 98.762703
9.737130 -115.290001 106.744003
-3.645230 -77.227501 125.486000
-31.570299 -119.073997 86.468399
-31.717300 -99.090401 88.208298
-1.007260 -134.134003 101.007004
0.983216 -101.109001 105.778000
-24.958900 -106.337997 121.931999
-35.237301 -136.261993 105.288002
-27.319500 -96.217903 97.438499
0.091179 -105.940002 115.204002
-36.865299 -128.972000 96.809601
3.473860 -111.588997 114.958000
-4.811950 -129.100998 94.843300
-49.521500 -133.087006 97.462601
-44.515999 -115.107002 92.099998
-34.927601 -104.997002 92.243599
-7.670930 -132.641006 93.886299
26.034800 -118.064003 127.401001
13.683100 -128.651001 119.579002
9.283100 -116.639000 128.888000
-45.331402 -116.954002 94.336098
-25.486900 -135.188004 106.311996
-58.336700 -121.297997 92.749199
-32.821499 -116.417000 92.381203
16.367300 -129.955002 123.675003
-0.993238 -92.574097 123.132004
-36.206100 -138.822006 105.212997
6.750470 -90.932503 130.343994
-31.717800 -93.803200 95.318497
-13.183600 -114.482002 119.712997
-11.957000 -136.216995 109.556999
-49.647900 -132.613007 101.410004
-9.596310 -104.968002 119.421997
-31.204800 -99.133499 89.357498
-31.737600 -85.702202 92.353302
-44.032398 -87.520599 84.350800
-13.764300 -109.616997 116.597000
-4.768640 -87.936096 125.625999
12.965700 -87.688698 125.790001
4.498790 -117.161003 115.327003
-29.318701 -125.640999 93.358398
-0.270266 -95.428101 110.452003
-40.786098 -124.503998 99.957397
-10.285100 -135.143005 113.041000
6.618630 -111.122002 108.982002
-29.937799 -134.869995 107.596001
-14.508600 -96.601997 106.578003
-12.947200 -136.274002 111.728996
-5.347010 -105.299004 97.107803
-34.804901 -93.492599 81.295403
-0.770922 -139.436005 101.164001
-44.122299 -128.783997 97.150299
-33.310101 -108.782997 98.125603
6.673460 -121.133003 110.686996
-8.006650 -136.302002 116.224998
-25.032101 -114.904999 114.292000
20.088301 -130.337997 128.625000
-36.784000 -109.436996 92.597397
-13.152800 -137.503998 107.598999
4.546450 -77.526604 121.816002
-45.462101 -104.057999 91.119904
-7.662020 -99.548599 102.093002
-57.140202 -128.621994 99.928902
-54.038700 -121.087997 88.771202
20.563601 -129.024002 122.622002
-25.018499 -98.297203 108.461998
-40.090698 -128.238007 98.338402
-5.121450 -135.608002 114.643997
-44.905998 -116.482002 97.032501
-45.680698 -122.129997 103.212997
1.799670 -119.084000 113.982002
-0.032378 -139.619995 102.181000
-30.935600 -110.967003 105.102997
8.631180 -117.790001 122.970001
-32.297501 -131.947006 95.752602
-33.702400 -104.757004 75.257401
-18.871500 -94.680099 106.722000
17.170099 -129.089996 121.967003
0.702705 -139.154007 112.263000
-41.017799 -122.884003 101.045998
9.738950 -83.183998 127.878998
20.812401 -116.262001 132.345001
-23.949800 -126.175003 109.237000
-33.111301 -109.572998 96.604500
13.112300 -97.994301 121.518997
-24.931299 -138.744003 92.935898
-27.393499 -112.367996 88.048798
1.015870 -93.912201 124.781998
-45.566200 -93.433403 100.446999
-9.254940 -106.890999 117.454002
-26.915600 -101.816002 115.185997
5.987230 -110.083000 109.241997
5.153930 -108.540001 112.579002
-27.778299 -99.005699 100.621002
-29.663700 -117.978996 107.119003
-35.024300 -107.615997 92.082802
-53.147800 -126.122002 101.238998
-0.433021 -127.542999 109.658997
-26.953899 -102.087997 99.116501
-30.561001 -104.046997 118.801003
-48.684299 -89.868599 92.737396
14.359100 -97.828598 120.612000
12.218500 -103.550003 117.476997
-10.941700 -112.044998 91.439301
-15.819300 -126.123001 88.946800
11.082800 -97.982002 122.542999
-31.415300 -107.010002 84.883301
-17.641100 -114.339996 118.984001
-29.714399 -95.139702 90.508202
-32.815601 -115.450996 92.394501
-21.265400 -106.523003 122.040001
-24.548599 -113.925003 114.834000
15.495000 -114.480003 109.349998
-34.712502 -115.063004 87.104698
-1.019680 -101.132004 107.350998
19.473600 -116.364998 130.139008
-21.125601 -99.829201 118.532997
-2.008220 -140.464005 103.278999
-24.860001 -140.257996 93.377403
-35.723701 -135.315994 101.490997
-41.426998 -96.927597 75.375397
3.069160 -79.280701 127.827003
-8.095560 -139.266998 100.347000
-14.354000 -115.888000 118.332001
-16.726500 -97.823402 101.529999
-12.947300 -98.924599 119.802002
-37.837002 -130.354004 97.308403
-5.891770 -83.151199 126.487000
-30.861200 -94.657997 88.657097
-1.359840 -100.972000 108.411003
-45.733200 -116.582001 88.430603
5.510500 -98.488297 105.238998
14.551200 -120.265999 130.158005
-33.908100 -111.773003 77.201500
-28.316900 -112.566002 109.595001
-32.663799 -107.438004 106.116997
-49.518600 -130.923996 85.282600
-10.322400 -137.729004 115.967003
7.974370 -110.762001 115.692001
-23.147100 -103.384003 123.587997
-32.313202 -110.681999 105.128998
-50.143200 -126.773003 98.603104
-29.203300 -127.197998 94.504799
-27.831800 -112.064003 87.487701
-43.355400 -118.967003 102.365997
-45.033298 -116.033997 92.380600
-2.558000 -115.098999 96.989403
-27.430799 -102.845001 98.109596
-25.540100 -97.436203 107.799004
-11.741600 -106.164001 120.436996
14.252300 -121.211998 131.533997
-35.160599 -135.031006 104.004997
15.918300 -108.502998 119.419998
-0.006433 -126.348999 101.651001
-19.910801 -117.742996 88.653999
26.222401 -120.486000 126.599998
-28.029900 -102.024002 100.553001
-43.007999 -117.538002 85.504799
-44.820999 -132.863998 95.531998
-27.633200 -130.781998 106.362999
-35.522499 -139.714996 104.522003
-55.661800 -121.000999 100.917000
-12.766600 -137.341003 110.512001
-16.585300 -136.716003 99.684601
-2.258380 -135.216003 114.389999
5.105740 -108.740997 107.011002
-4.728370 -104.776001 118.521004
-0.131683 -97.176300 120.928001
-31.950701 -109.306000 108.869003
-34.010502 -90.174202 83.967598
-10.798600 -134.016998 113.138000
-38.693001 -93.586601 93.683098
-33.738899 -108.732002 105.061996
-45.210400 -88.896797 84.308701
-12.418100 -137.824997 103.954002
-4.266680 -100.228996 109.305000
-50.117298 -134.093002 94.515503
0.358353 -82.920197 128.947998
-31.973600 -137.705994 108.809998
-45.972198 -103.086998 90.964302
4.901730 -120.320999 108.123001
-0.134475 -98.395500 108.699997
-31.029900 -132.460007 93.549797
-56.132999 -124.647003 100.833000
-20.449600 -135.300003 95.338402
-4.328500 -91.104599 116.011002
-1.605810 -102.740997 102.940002
-48.174198 -119.107002 96.651703
-1.954380 -102.629997 105.004997
-29.876101 -125.903999 96.452003
-47.291901 -123.318001 98.306503
23.702999 -114.231003 122.816002
-38.262699 -91.958801 95.681602
-53.183498 -118.327003 97.123497
7.538110 -107.405998 112.314003
-19.045099 -135.487000 108.163002
-26.270399 -97.804298 97.713997
-28.697800 -123.550003 103.760002
-18.906000 -102.278999 121.325996
-43.108799 -84.393600 93.352402
-7.261860 -95.838997 113.668999
-16.477100 -96.385002 102.154999
-48.369999 -116.484001 94.101997
17.904200 -94.675598 115.675003
7.551280 -119.577003 126.180000
-32.997799 -89.954903 87.918404
-4.588880 -83.817299 127.556000
1.595040 -78.609100 127.503998
5.095460 -95.091797 106.204002
-12.765100 -131.485992 112.620003
2.249550 -107.235001 103.950996
-9.680350 -104.700996 118.595001
7.459780 -81.612000 129.548004
-25.323000 -114.572998 114.168999
-39.815498 -119.839996 97.298103
-4.450440 -102.339996 115.792000
1.415400 -78.247803 119.955002
-4.147650 -78.744598 122.002998
-32.809399 -134.822998 105.331001
-16.981701 -95.341599 103.177002
-20.168699 -105.740997 121.442001
21.081200 -128.800995 130.585999
-36.473801 -92.918999 94.970100
-32.466999 -114.300003 94.177399
-39.053101 -94.763000 93.906197
-21.559299 -139.768005 102.208000
-23.368299 -131.421005 108.578003
-28.177099 -101.875999 100.528000
-17.357800 -135.811996 106.482002
-13.119700 -137.223999 107.671997
-33.750099 -114.276001 96.108002
12.805300 -114.810997 128.938004
-35.340000 -136.429993 98.717201
-16.921400 -110.771004 89.744904
-35.150002 -114.334000 81.003899
-31.092501 -120.818001 100.363998
-38.129501 -83.631897 86.146301
5.689860 -108.491997 111.026001
11.259300 -96.612198 123.307999
14.245000 -125.158997 126.456001
5.535580 -105.077003 117.262001
-28.339399 -115.667000 112.723999
-3.791990 -131.285004 116.429001
-31.970800 -110.152000 108.254997
-55.989799 -118.251999 94.458099
-11.166100 -140.313004 108.513000
-8.275290 -136.052002 114.307999
-12.890400 -137.574005 105.728996
-29.399099 -103.931999 115.361000
-25.412701 -99.556000 112.962997
-27.201900 -108.570000 118.086998
-24.605700 -114.447998 115.522003
-1.683030 -102.292999 103.779999
-47.430599 -127.417000 82.535202
-32.131302 -105.807999 93.158600
-33.389400 -116.904999 95.899002
5.030120 -110.240997 109.404999
0.512391 -130.393005 112.209999
-11.356200 -139.559998 102.072998
-36.888901 -140.615997 101.744003
-30.832500 -99.453003 100.709000
-30.767401 -123.454002 96.838600
-34.538101 -136.929001 107.189003
-44.552299 -85.991501 95.034599
-20.382700 -127.452003 88.764900
-32.525299 -121.000999 97.414299
-1.431360 -90.504799 125.612000
-19.514200 -94.683197 104.916000
-12.981500 -107.582001 118.278999
-33.164398 -105.172997 111.897003
-28.261200 -125.320000 91.325302
-41.850201 -124.667000 99.349701
-17.511101 -117.305000 119.501999
-7.777030 -124.712997 89.961601
11.268400 -119.725998 131.126999
-26.239201 -137.276993 108.477997
2.032660 -133.481003 110.239998
-52.803699 -122.293999 86.575600
-17.849300 -109.705002 117.496002
-8.205300 -129.931000 113.287003
-37.319000 -93.838303 79.126999
-26.067900 -112.136002 111.160004
3.374660 -101.750000 119.627998
16.820400 -109.723000 122.810997
-8.008270 -138.514008 117.291000
7.383920 -100.248001 122.103996
14.859400 -122.778000 127.694000
4.564840 -121.067001 112.138000
-29.065100 -114.191002 88.296898
-3.920930 -94.070198 111.235001
-24.968500 -120.459999 111.280998
-2.648770 -106.708000 99.285301
-12.294900 -106.746002 120.351997
-25.927401 -117.736000 115.392998
-30.241400 -99.791603 82.807602
-6.873050 -100.095001 113.623001
-37.066601 -97.411003 95.632103
-31.277000 -104.848000 88.525902
-31.331900 -99.556999 90.559898
-6.393930 -89.587097 116.733002
-42.486801 -86.222099 95.732300
2.784920 -103.880997 104.799004
-32.659401 -108.450996 78.252800
-4.095250 -82.932404 128.593002
-23.566601 -117.695000 117.056000
-29.003700 -93.976196 97.983704
-26.956800 -134.337997 106.565002
-17.171700 -112.550003 117.486000
3.313600 -93.164597 126.330002
-29.286200 -126.934998 101.905998
-6.834910 -137.807007 116.007004
-40.476101 -113.178001 83.275902
-36.004700 -103.514999 92.490303
10.479600 -83.853897 128.835999
23.876301 -129.429001 124.917999
-50.073700 -122.139999 85.177498
1.441510 -128.873001 108.792000
-2.282900 -89.128403 125.445999
15.165200 -128.578003 124.120003
-23.605101 -121.128998 111.844002
-6.268240 -92.223900 121.188004
15.966400 -92.045303 110.488998
-52.329399 -116.417000 94.002998
8.093870 -118.005997 124.083000
-27.399599 -110.542999 107.906998
-21.438601 -108.592003 120.592003
-38.954899 -125.127998 81.645599
-1.262080 -98.719803 117.120003
-26.216400 -100.291000 100.679001
-24.652901 -99.174500 101.255997
16.557899 -87.754097 118.058998
4.003390 -118.182999 114.301003
24.016899 -116.362000 117.209000
-12.366500 -108.338997 117.829002
-43.735500 -124.389999 81.875702
-9.022080 -140.386993 107.623001
-12.892000 -125.541000 114.065002
22.684900 -112.622002 115.661003
-33.416698 -108.872002 103.830002
-31.155800 -103.783997 97.433601
-7.221150 -100.972000 113.787003
-6.159270 -126.027000 93.707199
-7.718880 -98.301903 106.772003
-48.196999 -119.462997 84.461502
-35.166100 -138.886993 106.984001
-2.047170 -100.296997 110.184998
-3.258450 -89.169800 131.591003
-31.792101 -98.269997 88.670197
-31.921101 -128.416000 89.747101
-46.921700 -117.431000 95.790604
2.033350 -121.057999 112.160004
-27.163799 -137.737000 110.212997
-31.288099 -110.967003 104.764000
-20.424400 -136.231003 96.752602
24.062099 -126.898003 122.217003
22.109800 -113.154999 128.082993
-6.604730 -127.233002 87.611603
19.670900 -124.294998 116.897003
-20.107000 -112.816002 117.162003
-16.294300 -98.250397 118.226997
-37.406799 -87.529602 98.185501
16.761700 -121.617996 112.473999
-6.236560 -101.342003 113.843002
-32.710701 -127.941002 100.644997
-23.671801 -100.730003 121.123001
-30.510099 -108.546997 115.987000
-4.395860 -117.597000 95.884003
-32.773399 -113.210999 94.076698
-9.205010 -99.739403 112.747002
-9.032730 -128.546997 113.625000
4.313420 -114.779999 104.844002
-9.675850 -132.781998 90.055199
6.205780 -108.052002 110.439003
-27.352100 -99.130096 99.539200
-25.219299 -98.667999 107.807999
-22.497700 -131.707001 89.656097
2.092910 -119.639000 112.183998
-20.818701 -135.923996 94.707603
0.148306 -77.748497 121.304001
-31.334101 -120.897003 97.963997
-34.656200 -99.212196 95.782501
-6.356520 -95.238403 112.268997
-1.914760 -96.536400 112.124001
-28.456699 -124.143997 90.045799
-31.149900 -97.845802 96.869301
5.352980 -108.336998 107.639999
24.509100 -115.169998 123.120003
-48.470600 -122.346001 99.379700
-2.764990 -77.395699 124.473999
-1.163890 -89.695099 124.866997
1.526510 -135.223999 110.321999
-38.134800 -83.655296 94.186302
-32.957600 -120.224998 97.343697
-39.761002 -114.454002 84.115501
-32.686199 -115.452003 91.265999
-47.342602 -99.648201 90.705902
-30.023001 -101.845001 85.030800
20.375401 -128.210999 122.753998
-35.383598 -96.488503 76.661499
-6.730230 -122.549004 93.957703
-19.887600 -140.160995 99.290100
-6.833850 -86.322701 118.745003
-20.335100 -137.938995 103.125999
-8.495110 -131.612000 114.031998
-12.577300 -113.970001 119.791000
-4.690640 -135.011002 99.561699
-35.136101 -85.539200 97.486298
19.745300 -116.554001 130.889008
-30.493601 -127.212997 97.357101
-4.170950 -129.983002 94.714500
-3.845590 -100.758003 112.001999
-50.179298 -132.804993 100.037003
-27.498301 -122.947998 108.035004
5.065290 -105.980003 105.842003
-21.987900 -106.428001 121.476997
-23.643499 -138.983002 106.276001
0.248601 -126.633003 109.487999
-2.354510 -101.536003 111.960999
-16.916599 -134.656998 92.131302
-29.165501 -114.938004 111.424004
-5.565530 -108.907997 118.806999
-41.475498 -97.567299 93.467300
-19.652100 -137.533997 102.042999
-30.337099 -139.606995 93.494698
22.635201 -113.936996 129.975998
-52.057400 -118.793999 100.039001
18.793900 -123.043999 134.606003
-1.733560 -100.658997 109.417000
-12.389700 -137.843994 107.280998
25.814600 -123.189003 124.117996
-29.947800 -116.109001 88.709702
-45.513599 -96.404999 94.927803
-20.228600 -115.740997 119.587997
-20.083500 -105.303001 122.257004
-15.506700 -134.953003 94.815498
-29.089399 -110.081001 113.613998
15.717500 -118.154999 130.235001
-37.048801 -105.878998 91.975800
-31.272200 -120.688004 99.359497
-21.274799 -97.102097 112.502998
-45.740700 -131.039993 97.962303
-3.676270 -90.140999 116.265999
11.748500 -120.476997 108.814003
-31.427401 -110.318001 110.344002
11.972000 -83.325798 123.115997
-31.659300 -104.492996 99.189598
-0.665013 -117.271004 98.705597
15.288900 -117.796997 131.337006
3.026300 -112.708000 102.852997
23.566500 -120.941002 133.481003
-51.172298 -133.218994 100.476997
23.646799 -128.128998 128.294998
-35.352001 -139.473999 99.133102
12.350700 -125.317001 122.526001
-19.040001 -121.060997 115.713997
-27.296499 -99.358002 109.439003
-32.033798 -109.386002 112.703003
-1.841540 -130.490997 116.490997
-4.087400 -135.533997 114.985001
-7.545450 -85.222198 120.291000
-33.194698 -116.050003 94.497101
-6.315690 -87.532097 123.844002
-32.948299 -91.972000 90.106003
-23.447100 -138.393005 94.608101
-32.497398 -103.984001 107.602997
-4.693130 -100.832001 110.301003
-35.856602 -130.677002 96.204102
-30.110399 -114.216003 109.908997
15.009200 -120.285004 131.628006
-2.919730 -127.654999 91.565300
-1.091660 -105.161003 114.331001
-30.994801 -123.601997 96.385101
7.162660 -107.586998 111.208000
-46.124100 -93.772102 83.317596
2.524900 -83.089798 114.625000
-28.067400 -101.167999 115.931999
14.369000 -90.954697 110.196999
-7.660820 -105.458000 117.292000
-0.041705 -106.316002 115.266998
-2.671660 -90.853500 124.044998
-28.130199 -127.737000 104.275002
-42.548801 -95.553200 95.730499
-13.728900 -98.374298 115.887001
4.361660 -118.875999 113.926003
-32.697300 -112.167000 103.647003
23.327000 -113.508003 119.648003
-3.370920 -127.147003 92.431503
1.990270 -120.668999 112.513000
-4.246980 -135.440994 115.920998
-33.882000 -139.481995 106.480003
-34.587101 -115.073997 88.337700
-29.554800 -109.832001 113.112000
-30.921301 -122.269997 96.609100
-48.225201 -101.371002 79.871300
-41.180901 -86.679298 95.571899
-46.739300 -118.122002 95.447098
-32.286098 -109.638000 105.181000
-42.952000 -117.317001 100.285004
-1.004880 -96.958099 110.246002
-26.416401 -108.901001 118.223000
9.057800 -122.188004 125.015999
-29.339800 -124.660004 103.620003
13.127800 -120.223000 130.490005
-8.701170 -112.233002 119.658997
-48.707901 -86.737701 90.265297
-47.484001 -129.869995 98.337898
-18.302799 -95.430901 106.740997
-44.245499 -96.646797 94.724701
14.788400 -125.583000 126.415001
0.549226 -79.909203 118.892998
7.455350 -103.424004 106.225998
6.071550 -120.009003 109.278000
-0.713682 -92.639503 130.070007
2.484540 -119.540001 112.147003
-51.207001 -128.520004 86.580597
13.155000 -124.603996 125.161003
12.631700 -112.819000 124.483002
-50.439899 -120.509003 101.760002
20.317600 -128.742996 129.862000
-1.223230 -97.523598 109.699997
-29.500299 -124.415001 94.439201
-48.044201 -93.853699 84.207100
3.841370 -106.667000 104.850998
-48.596802 -130.005997 101.519997
-8.698420 -139.324005 115.698997
-19.230801 -95.213402 109.223000
-19.886200 -136.011993 97.606201
16.861601 -130.052002 129.123001
-41.172600 -85.037102 93.955597
-47.400002 -103.245003 80.384598
-20.542200 -139.679001 98.636299
-31.410801 -102.058998 89.677399
16.669901 -95.549400 120.730003
-10.323500 -139.634003 106.264000
16.797899 -119.954002 133.774002
-28.083900 -108.072998 87.413200
14.901300 -124.027000 128.136002
-32.355000 -108.938004 108.617996
-47.899399 -132.044998 97.318703
-18.236200 -113.351997 118.305000
-31.131701 -99.109901 89.035202
11.225300 -105.235001 115.009003
-0.286285 -96.806702 110.730003
-13.154700 -108.511002 116.464996
-22.842899 -99.366501 117.517998
-19.326900 -136.666000 97.213303
0.200223 -107.033997 114.419998
7.701330 -120.000000 127.541000
3.343040 -119.870003 105.757004
-31.567600 -110.763000 81.770699
15.445000 -123.597000 127.071999
-32.872700 -112.655998 103.385002
12.951900 -119.797997 130.643997
-23.357500 -137.128006 105.239998
-56.060398 -131.052994 100.039001
-43.272099 -133.938995 93.628601
-2.985080 -139.871002 99.924896
-55.339600 -126.142998 100.072998
-48.797298 -120.445000 96.341698
-45.632801 -124.634003 102.079002
-4.006090 -92.114403 123.918999
-19.384001 -138.582993 100.378998
-5.660740 -134.546997 98.803802
-2.352260 -95.706703 116.889000
-27.195999 -111.196999 114.361000
-27.669800 -131.723999 92.227600
-3.161250 -87.122498 126.547997
-20.957701 -101.195999 97.339699
13.197100 -115.657997 108.921997
1.118820 -126.119003 105.892998
-27.375000 -102.045998 98.889099
8.399050 -120.199997 123.731003
-7.886780 -121.865997 115.482002
-3.046320 -130.934006 117.031998
-10.755100 -109.394997 119.070999
-8.926410 -105.588997 95.063202
-5.939560 -96.493797 112.403999
-5.264650 -127.103996 93.714401
-43.102100 -88.390099 82.648499
-8.620170 -106.210999 117.435997
-40.387901 -98.954803 93.359901
16.240000 -116.814003 130.507996
-21.738501 -107.861000 120.886002
-31.947599 -110.971001 105.712997
1.863310 -134.945999 109.086998
-27.904800 -102.065002 100.927002
-29.103901 -124.752998 90.765503
-45.903000 -121.582001 82.044800
-5.445080 -91.722298 121.966003
-30.531900 -134.791000 106.081001
-7.149700 -90.372299 121.393997
-11.853600 -129.966003 113.225998
3.286950 -94.134201 126.411003
-51.010601 -123.813004 101.115997
26.631500 -117.773003 123.644997
-38.062302 -93.211700 93.796097
-33.280800 -112.882004 80.579697
-23.365299 -111.099998 117.251999
12.453000 -112.612999 125.816002
-25.105700 -133.751007 106.706001
-27.156900 -113.766998 113.218002
10.386600 -114.501999 107.932999
-33.653000 -100.748001 93.153603
-36.089901 -112.013000 75.933098
-0.862010 -140.382996 104.707001
-35.604801 -134.947006 102.478996
-25.495899 -139.057999 107.920998
-2.902950 -85.238297 117.898003
-34.405300 -110.240997 93.564499
-22.238701 -129.307007 110.934998
-23.288700 -135.507004 94.129204
-33.498699 -110.681000 103.147003
-33.330700 -135.699005 105.383003
-45.267799 -118.688004 83.622002
-33.472900 -117.277000 94.762199
-25.674601 -98.643600 111.361000
1.034600 -114.100998 115.875000
-27.949400 -131.171997 105.777000
7.381500 -123.663002 113.928001
-36.322498 -112.574997 76.317398
-48.192699 -118.771004 99.130203
-19.752501 -94.497002 109.261002
-15.186800 -127.093002 89.698700
-17.381300 -108.676003 121.125000
-39.728600 -92.660896 79.967300
-15.783900 -113.963997 89.227203
-2.869770 -88.940804 115.738998
0.282187 -81.439102 128.852005
-3.861760 -131.813004 117.283997
-52.871300 -126.636002 87.620598
-34.678799 -135.725006 104.860001
-20.900700 -140.514008 101.372002
-28.437700 -102.641998 97.456001
-6.994460 -124.267998 115.512001
-26.897200 -122.067001 88.425400
1.959120 -97.677399 122.209999
-6.267080 -94.120697 111.824997
-28.654301 -107.123001 90.561501
-6.080760 -137.660995 116.259003
-57.285099 -126.521004 96.779800
-5.739210 -140.014999 99.534698
11.803200 -117.347000 130.613998
-13.983400 -108.474998 117.018997
-3.557560 -87.723000 125.491997
-31.776600 -119.888000 98.007599
-12.812800 -117.255997 91.096199
24.424900 -116.845001 118.737000
-34.473801 -134.712997 103.892998
-5.607020 -131.945007 91.172302
-7.098090 -124.015999 93.064697
-3.182790 -85.059303 127.494003
1.358840 -81.828300 129.625000
-5.731390 -135.294006 115.619003
-7.779370 -88.405800 119.492996
-47.737400 -91.328300 97.908798
-35.942001 -131.033997 102.487999
-44.068501 -108.972000 79.108902
-15.177500 -108.714996 115.404999
-13.297900 -110.625000 117.880997
-20.436300 -124.355003 110.898003
-10.478300 -125.098999 90.797997
-34.988400 -138.608002 97.463303
-43.014801 -96.687698 93.940697
-28.660101 -111.991997 108.337997
-56.419601 -119.457001 98.599098
-57.154800 -125.864998 92.826500
-9.168860 -105.668999 117.619003
-31.995001 -100.119003 94.061203
-34.462002 -115.934998 90.662399
7.889280 -117.984001 123.304001
9.728480 -96.158203 124.265999
-53.563202 -131.770004 102.781998
-28.360300 -112.769997 110.047997
-7.781420 -135.266006 114.888000
-19.795401 -136.841995 99.505699
-8.700900 -106.391998 118.458000
-16.624701 -124.862000 113.251999
-25.383400 -108.365997 89.626701
-2.264890 -135.100998 100.903000
-35.274200 -104.316002 74.445099
-6.487760 -81.043800 125.850998
-18.063999 -108.985001 120.706001
-0.061284 -95.712898 122.401001
-40.983601 -84.657501 84.650803
-8.048170 -125.190002 88.778297
-33.970699 -91.101196 82.995003
-29.722000 -102.517998 96.022598
23.505800 -118.739998 116.697998
-31.822901 -98.880600 95.899300
-11.003800 -98.554199 101.248001
-7.833780 -85.596001 119.944000
-26.153601 -98.675598 106.727997
-46.372799 -100.575996 91.389900
-20.054199 -138.091995 98.956001
-3.428580 -83.396599 119.767998
-32.606499 -105.448997 92.394096
-42.798599 -131.731995 95.723297
17.240299 -117.264000 132.005005
15.651000 -116.399002 128.876007
-4.318730 -126.364998 112.958000
4.011160 -118.709999 115.070000
-11.933600 -139.380997 108.530998
-52.778500 -125.416000 100.543999
-39.047501 -93.343803 96.954201
-37.333000 -137.828995 100.403999
-37.137901 -83.169998 90.073601
-26.090900 -112.655998 113.321999
-55.784302 -118.325996 93.266602
-5.986540 -84.205002 121.801003
-42.066200 -110.769997 88.988503
-18.466801 -128.598007 111.934998
21.631901 -110.292000 117.396004
-32.503201 -113.936996 93.803101
-2.257530 -88.214996 124.769997
1.317890 -137.259995 110.097000
-6.191330 -91.625603 118.468002
-1.183590 -98.328300 119.031998
-33.514301 -106.622002 92.063202
-41.413799 -85.907501 94.516197
-11.265500 -109.828003 120.078003
-18.571600 -137.108994 101.011002
-40.875198 -123.138000 102.083000
-25.881300 -97.814598 108.435997
11.837200 -103.408997 116.419998
25.319000 -126.584999 123.736000
-3.430630 -98.169098 112.459000
-4.791400 -78.833099 123.002998
-29.635000 -130.714996 106.310997
-30.735100 -106.078003 86.603203
0.163715 -128.434998 109.760002
-13.877100 -131.309998 113.278999
-3.735570 -128.035995 89.838303
-48.552200 -97.652298 87.243500
-30.520700 -103.917999 100.237999
-19.052500 -103.026001 121.747002
-12.164200 -136.317993 108.510002
-31.222799 -140.806000 96.014297
-29.669701 -123.042000 86.246498
9.787390 -122.430000 123.858002
-29.573700 -103.984001 114.603996
20.200399 -110.128998 118.648003
-1.197530 -91.683701 129.533005
-47.641800 -119.457001 95.722397
-28.951200 -118.783997 107.600998
-38.731602 -95.267899 76.362602
-37.798901 -113.777000 79.110199
-3.537670 -98.022903 113.932999
-6.223760 -90.931396 109.814003
-2.271520 -109.459999 118.000000
20.462200 -112.252998 128.723007
-34.014400 -100.498001 92.032097
-9.236700 -106.206001 117.508003
-12.287500 -102.011002 119.644997
-4.905870 -133.007996 117.164001
-11.616500 -124.327003 113.663002
-23.952801 -99.283699 116.697998
1.054380 -136.470993 105.512001
-31.429300 -96.674599 81.428497
-21.571100 -97.209198 108.363998
-38.666100 -97.976097 93.202904
18.213600 -128.533005 122.575996
3.016520 -93.579597 125.435997
-5.806810 -108.402000 95.277100
-5.592220 -131.371994 94.788498
-17.599300 -95.855904 103.404999
-32.193699 -102.286003 106.379997
-46.532799 -129.809998 97.626404
0.344398 -104.050003 103.277000
-49.320499 -131.104996 100.761002
4.799570 -91.767097 128.798004
20.901400 -131.098999 128.464996
-39.546700 -121.722000 97.819397
-11.893700 -120.389000 116.640999
18.276501 -116.025002 111.806999
2.479840 -93.028297 125.508003
-45.440800 -107.691002 88.479500
-18.565201 -95.730797 103.265999
-13.090000 -135.727997 99.884102
4.492090 -116.813004 116.954002
7.768900 -120.566002 126.934998
3.077500 -91.323402 107.644997
-30.972799 -99.897598 84.637199
24.209299 -126.571999 123.572998
-26.854601 -94.956802 97.586800
-31.754700 -106.257004 92.595100
15.254900 -119.699997 131.964996
-49.807400 -127.238998 99.375801
15.868200 -122.584000 132.514999
-2.696910 -84.365303 132.151993
-14.154000 -98.107300 115.314003
2.099680 -107.680000 113.617996
-0.501412 -91.491699 126.404999
1.992840 -82.551102 131.098007
-30.871000 -109.836998 109.001999
-1.467600 -83.851402 115.549004
-38.980202 -99.031898 94.151497
-33.809399 -138.626999 106.875000
0.816751 -139.046997 105.913002
-2.576430 -88.688103 125.457001
-33.651798 -86.478699 98.158096
-27.198400 -131.345001 106.509003
-36.669701 -92.649399 96.559898
-32.757900 -106.985001 96.847900
1.932930 -90.452599 108.379997
-25.895500 -97.969101 107.855003
-36.825001 -140.188004 100.300003
22.244900 -128.158005 123.521004
-45.737000 -92.434303 100.775002
13.241000 -103.309998 111.543999
1.601150 -135.927002 110.323997
1.087700 -138.507996 111.279999
-26.462799 -112.167000 110.502998
20.503201 -130.729996 129.287994
-42.939499 -102.804001 74.803596
-37.511799 -101.762001 94.077400
-32.112499 -92.266296 91.531502
20.081301 -111.078003 125.997002
-27.782900 -112.944000 88.033600
-28.885799 -116.902000 110.528000
-21.173100 -133.003006 108.794998
-0.002123 -98.955200 117.331001
-34.094200 -111.252998 93.660797
-50.848701 -119.314003 96.760498
-43.802299 -96.473701 95.962196
-43.232399 -104.927002 75.006401
-14.511800 -98.156601 115.639000
-39.526501 -132.317993 94.790802
-15.664600 -118.398003 117.061996
-32.022800 -119.487000 102.175003
-44.604500 -96.571404 94.867798
-13.715000 -125.261002 113.041000
-9.114710 -130.718994 114.014000
-1.239760 -82.268303 116.985001
-9.840590 -134.662994 112.495003
-30.408199 -95.696701 95.971100
-26.527599 -137.139008 108.728996
-20.278900 -96.315002 110.301003
-32.034000 -91.302696 93.324097
-37.332901 -120.900002 96.836098
2.240530 -108.226997 114.217003
-8.549550 -137.261002 116.444000
11.746500 -118.028999 130.585999
-21.087900 -96.943802 103.616997
-23.773899 -113.796997 114.140999
-15.979700 -95.346497 107.378998
-3.742880 -135.354996 114.792000
-0.607360 -91.648399 131.352997
-26.321899 -130.440994 106.372002
24.397400 -118.455002 130.888000
