31.338967 -135.447667 142.078664
32.653233 -130.741338 141.779338
48.884233 -135.908335 140.621663
48.589034 -136.150335 140.557999
50.012699 -136.707331 140.732997
50.085967 -136.423335 140.812668
51.322734 -135.927333 142.829000
50.895200 -136.097666 143.029668
51.529167 -135.605998 143.323003
32.017634 -133.968669 152.555333
34.551666 -134.833669 151.526001
34.207400 -134.998998 151.826335
54.750765 -137.077337 148.238002
54.905165 -137.063670 148.143331
54.808932 -136.494003 148.447327
35.642967 -132.576670 150.960337
35.416833 -132.826335 150.765335
35.653168 -132.583669 151.298670
36.325766 -131.748667 151.518005
36.450766 -131.982671 151.071335
36.047768 -131.672999 150.886002
36.142166 -132.147003 150.837001
36.250500 -131.942668 150.589996
35.861633 -132.248001 151.701004
36.542433 -132.043671 151.618337
36.314866 -132.236669 151.858337
35.621933 -131.991338 149.893997
34.813699 -132.256332 149.590001
35.529800 -131.961670 149.300995
35.394166 -132.866002 149.328334
35.387366 -132.721003 149.041997
35.379500 -132.330002 148.999329
34.143767 -135.060003 152.535334
34.030966 -134.887670 152.695999
34.427867 -135.161001 152.233999
34.734600 -135.130335 150.462667
34.847434 -134.883667 150.566335
34.782600 -134.855001 150.908666
34.569433 -135.305003 150.743332
34.872267 -135.411997 150.832998
34.826467 -118.885333 147.872665
35.112601 -118.910667 148.061000
35.180434 -119.251668 148.376002
35.134500 -119.537333 147.887334
34.809600 -119.404002 148.311335
34.649766 -119.199000 148.063670
40.540700 -124.198334 147.394333
41.175032 -122.671000 146.829000
41.388365 -122.723999 146.493998
41.139167 -124.392667 147.394333
41.007900 -123.835002 148.260000
40.903900 -123.654668 148.561666
40.394834 -124.283333 147.630000
36.489300 -121.778336 137.270665
36.935201 -121.717333 137.254333
36.391501 -121.432332 136.862000
36.889102 -121.209999 136.894002
36.259866 -121.402000 137.367330
36.705767 -121.340998 137.350998
32.873667 -124.639666 149.618001
32.745134 -125.493001 149.358337
33.157668 -125.677666 149.591670
33.092300 -125.067668 149.904338
33.182634 -125.260002 150.137339
32.483034 -124.687332 149.442001
32.373667 -125.124001 149.392003
32.572300 -125.019669 149.874669
32.866433 -125.354335 149.956004
32.949234 -125.700333 149.444672
34.839633 -122.599665 150.401672
35.263299 -122.348000 150.516337
35.038633 -123.089999 150.647003
35.001134 -122.906998 150.202337
35.607533 -123.079666 150.909332
35.831467 -122.562332 150.857000
36.850367 -130.518000 142.635000
36.943433 -130.932999 143.493668
36.394000 -130.462667 143.158335
36.275934 -130.429998 143.578334
35.812233 -130.446665 143.886668
35.862867 -130.389999 144.458333
35.667166 -130.503998 144.672002
38.698733 -131.750666 142.427999
38.922166 -131.432002 142.531998
35.545634 -131.969330 145.382334
35.412867 -131.983999 145.634333
35.519433 -131.879328 145.060333
35.457801 -132.404663 145.353333
36.680634 -132.518331 142.151001
36.706633 -132.883662 142.194667
36.905732 -133.107000 142.091665
36.507367 -124.885333 137.258336
36.833633 -124.843666 136.791997
37.166434 -125.142334 137.278330
37.422867 -125.282333 137.152995
36.779901 -125.545001 137.360331
36.477968 -125.417000 137.343333
37.398067 -125.529668 136.773331
37.108467 -125.458669 136.744334
36.972234 -125.092000 136.780329
36.909033 -125.207001 136.797333
37.706333 -125.209002 136.840663
37.904266 -125.040001 136.946665
37.690600 -125.042000 137.060664
43.344167 -124.610664 144.510005
43.187567 -124.719999 144.445669
43.854600 -125.159332 143.502330
43.936400 -124.713666 143.451330
43.637367 -125.031667 143.530996
43.577466 -124.062665 144.241333
43.262534 -124.093333 144.101334
43.449134 -123.808332 143.792002
43.058033 -126.251335 144.002665
43.274567 -126.575668 143.906001
42.877700 -126.556002 144.374003
43.038400 -126.227002 144.269333
42.878799 -127.468669 143.834000
42.912999 -127.122002 144.144669
43.060033 -127.227002 143.966670
42.859166 -127.444336 144.100667
43.685800 -126.417669 143.488998
43.620667 -126.712334 143.248998
43.851566 -126.859001 143.203334
42.095333 -126.087667 145.096003
42.113434 -126.335665 145.229004
42.268700 -126.088333 145.162669
42.430533 -125.382665 145.212336
42.212632 -125.587667 145.152334
42.468500 -125.635333 145.089671
42.604933 -125.425334 145.016668
47.266800 -128.840668 143.304667
47.012866 -129.237666 143.269002
46.987600 -128.519999 142.942998
47.321767 -128.393336 143.123001
47.447699 -128.685328 142.710337
31.115966 -129.935669 140.805003
30.877800 -129.968338 140.797002
29.658100 -127.995997 141.347336
33.400866 -130.506002 142.539007
33.021600 -130.371338 142.260005
35.151466 -130.346003 142.037994
35.163532 -130.378001 141.712331
34.806199 -130.469666 141.496999
37.219967 -131.639333 142.670670
37.583666 -131.688665 142.621999
37.735767 -131.720332 142.597666
37.535666 -131.256668 142.983668
38.001001 -131.308334 142.787669
37.074033 -131.382329 141.654668
33.779634 -131.304006 140.865997
34.199401 -131.221670 141.168666
34.383701 -131.074336 140.740000
34.344899 -130.403666 140.623337
35.846732 -131.659332 142.162333
35.778599 -131.932668 142.464005
40.210234 -130.593664 142.661336
40.095935 -130.388331 143.339666
40.207601 -130.554667 143.332998
39.724234 -130.389333 143.439331
39.835901 -130.555669 143.432663
38.688900 -122.022001 136.969335
38.392100 -122.110001 136.925334
38.896833 -122.114667 136.898336
38.527035 -122.807668 137.238332
38.743801 -122.946335 137.120997
38.935168 -122.787669 137.120331
38.930967 -122.521334 136.878332
38.525467 -122.863668 136.869334
37.446833 -122.482002 136.756002
37.026867 -122.620336 136.854335
37.595200 -122.181669 136.800334
37.705299 -122.975667 136.762004
38.092566 -122.694000 136.810669
38.133333 -122.316668 136.855667
36.473667 -123.693998 137.118332
36.503466 -123.390333 137.103999
36.694967 -123.216001 136.811666
36.520034 -124.008331 137.151667
36.801767 -124.003998 137.186671
28.546300 -138.303996 150.009333
26.657366 -138.914337 145.876002
26.884800 -137.866002 144.664001
26.661966 -137.668004 145.033666
26.505634 -138.025335 144.490000
26.762634 -136.989003 144.534668
26.532734 -137.619670 144.140996
26.931900 -137.043666 144.891998
26.897566 -137.318334 145.153330
26.815434 -137.233337 144.005666
26.203067 -137.174332 144.210999
26.464500 -136.936335 144.256002
24.867367 -138.472331 145.460668
24.593433 -138.830668 144.570999
24.393700 -139.797999 144.610331
24.323367 -139.181671 144.289663
22.216933 -135.039998 145.399338
22.690800 -135.321335 145.051000
22.324900 -134.919001 145.053340
22.770933 -134.624003 145.282669
21.946200 -135.094666 144.616002
22.490899 -135.417002 144.641001
23.063233 -135.132004 144.476003
22.846299 -135.233337 144.312668
27.811267 -137.663335 146.082331
27.639133 -137.947001 146.208333
28.110500 -137.823669 146.582667
27.984000 -137.938334 146.851334
24.231167 -138.671672 147.205999
23.882533 -138.829336 147.324997
23.913933 -138.953669 147.115331
23.709000 -139.096670 147.187998
24.382433 -139.307668 147.069336
24.333500 -139.255000 147.308670
23.928300 -139.361003 147.321335
24.993233 -138.286331 147.258331
24.911867 -138.878332 147.257670
24.960800 -138.931000 147.018336
24.948200 -138.396001 146.907333
30.402166 -136.753332 144.623332
30.600500 -136.659332 144.333333
30.493533 -136.139999 144.425329
30.314301 -136.335999 143.929337
30.078201 -136.148000 143.962672
22.929900 -131.964335 159.976995
23.083633 -131.669332 159.617666
22.923633 -132.297663 159.793330
22.712067 -131.720332 159.261668
23.052800 -132.206996 159.463333
53.629367 -137.621333 145.912333
31.388633 -124.320333 149.476669
31.190133 -124.479665 149.648671
31.552966 -124.213999 149.353333
31.309000 -123.965998 149.385666
31.242233 -124.948667 149.758672
31.511234 -125.514333 149.687002
32.382668 -124.239665 149.890666
32.377867 -124.472000 149.917333
31.948668 -124.335999 149.867666
31.939568 -124.098000 149.807002
31.598366 -125.161334 149.604670
30.939700 -124.504333 150.383331
30.483199 -124.442332 150.611333
30.686733 -125.067334 150.120005
30.075867 -125.031334 151.073664
30.241467 -125.305667 151.063334
30.226400 -124.643667 150.843664
30.013233 -124.416334 150.865331
22.899234 -129.797663 152.934672
22.447034 -130.278005 153.019002
22.441800 -129.798665 152.627670
29.430333 -132.608327 152.119334
29.561100 -133.177002 152.355331
29.333867 -132.971664 152.187332
30.120934 -132.997335 152.610667
30.404200 -133.166005 152.747335
30.729933 -125.431000 150.767665
30.848800 -125.802666 150.732000
31.841967 -125.456668 150.077667
31.825301 -125.019333 150.056666
31.148333 -126.067332 150.535329
31.636667 -124.908666 150.087997
31.167034 -125.069000 150.401662
30.746367 -125.601336 150.170003
31.214734 -125.835668 149.891001
30.194733 -127.588000 149.921997
29.209167 -128.562007 149.436000
50.027067 -136.576004 133.491333
50.838434 -137.419001 133.950002
51.040834 -137.576004 133.792002
50.255999 -137.058670 133.691666
50.249400 -136.724004 133.745667
49.500666 -135.177668 134.925669
49.780066 -135.329000 135.220668
49.977366 -135.162669 134.459671
49.714700 -135.104004 134.459671
50.115166 -135.114670 134.893336
49.628067 -134.516332 134.934331
49.952600 -134.766332 134.902669
49.948266 -134.672668 135.182332
49.891300 -134.859334 134.247335
49.795500 -134.622665 134.319000
34.277167 -136.155334 140.843002
35.884134 -136.054326 139.956665
35.804033 -136.267329 140.332998
35.802467 -135.976664 139.342997
36.035201 -135.882665 139.253667
35.636400 -135.823329 139.367330
35.869133 -135.729329 139.278000
47.480766 -133.657664 132.141332
47.366933 -133.804001 131.843999
47.376067 -134.095332 132.317663
47.154634 -134.318334 132.437332
47.184466 -134.614665 132.051331
47.156067 -134.530334 132.301666
47.664233 -134.492335 131.294001
47.395000 -134.609334 131.382665
47.711400 -133.780329 132.687998
47.748067 -134.585999 132.818329
47.141900 -134.394669 132.880666
47.197900 -134.259003 133.126663
47.704433 -134.186330 132.592662
47.218534 -133.954000 133.206996
47.892467 -134.645335 133.006332
48.089867 -134.659668 133.143331
48.150033 -134.497335 133.309998
49.549767 -133.153997 129.856664
49.186801 -132.899999 129.989665
47.451667 -133.218002 131.857666
47.608967 -131.878667 131.097666
47.277166 -131.629333 131.614665
47.256666 -131.144999 131.450668
51.275767 -132.552333 130.511337
51.884467 -132.037003 130.791997
51.729500 -132.445002 130.748667
51.715267 -131.598668 130.609665
21.622766 -140.870336 144.925334
21.741033 -140.867335 144.502335
22.160433 -140.793335 144.646001
21.614100 -140.362666 144.956329
21.834167 -140.782003 145.513667
21.943333 -140.246668 145.416662
22.177100 -140.721670 145.662003
22.460200 -140.158005 145.620661
56.564667 -139.319336 147.117335
56.312233 -139.218669 147.168666
31.123466 -138.451004 149.751663
31.324700 -138.369334 149.924332
31.278067 -138.432002 149.416331
31.669500 -138.289668 149.524333
31.671967 -138.261002 149.886332
23.641000 -139.297668 147.046000
23.311934 -139.464666 147.187668
51.499767 -137.128332 140.091670
57.967300 -139.391998 147.061335
57.518366 -139.432332 146.935003
50.224866 -136.478663 141.798335
50.034134 -136.600332 142.307337
50.497866 -136.906331 141.464666
66.517232 -119.148000 150.372330
66.369298 -119.181000 150.123662
66.800367 -119.261665 150.538666
66.501732 -119.327332 150.046997
66.883232 -119.576998 149.493332
66.461100 -119.401332 149.414998
66.367533 -119.332331 149.766663
67.046666 -119.539665 150.118332
66.758733 -119.358999 150.320333
56.466433 -131.369670 148.372665
58.267865 -129.937002 146.543666
57.977833 -129.755666 146.790665
57.746866 -129.737000 146.523997
58.016233 -129.753332 146.312663
36.932899 -129.940999 153.667669
36.695333 -130.195999 153.717672
37.363366 -130.246668 153.182999
37.408466 -130.771001 153.123998
36.560267 -130.269002 153.381999
36.986200 -130.820002 153.409332
36.703533 -130.550669 153.518336
36.693499 -130.627335 153.285670
36.793866 -130.334335 153.162003
56.563367 -131.641337 149.285334
59.028000 -135.716003 150.091995
59.194068 -135.333669 149.946996
58.846368 -135.191335 150.247996
58.111067 -135.783671 150.435669
58.296668 -135.312337 150.483332
59.149934 -136.787338 149.873998
58.817034 -137.012334 149.896001
65.677900 -136.577001 118.353666
65.540967 -136.476003 118.831998
65.635701 -135.937668 118.279332
65.531568 -136.060003 118.704999
58.363167 -138.229670 149.168335
58.183300 -137.843002 148.855001
58.363167 -138.240005 148.580668
57.824333 -137.937332 148.901332
58.442401 -137.826335 149.498332
57.760667 -137.646332 149.183665
58.528734 -137.556666 149.664998
58.250401 -137.455332 149.814000
61.683699 -137.517995 120.392667
58.511367 -138.038005 126.805000
58.657233 -138.401337 127.068334
58.417234 -138.002670 127.009666
58.520566 -138.114003 127.226000
67.221331 -130.013331 130.270996
67.364398 -129.980001 129.763662
67.338165 -130.306666 129.587662
66.992732 -130.521332 129.722666
66.740133 -130.518000 129.451665
65.940366 -129.947662 132.405665
66.146067 -130.134328 132.532333
65.961001 -130.346995 132.896667
65.992467 -130.596995 132.893667
46.805401 -128.344332 141.975667
46.604867 -128.130002 141.617666
45.876733 -129.797663 141.186000
46.023200 -129.553329 141.401667
45.598166 -128.929331 141.552999
46.617101 -128.795664 142.033666
46.979800 -128.998662 142.454666
46.481667 -129.388000 142.279332
46.592766 -129.457001 142.637004
46.653533 -128.849335 142.850998
46.781667 -129.750666 142.380000
47.100766 -129.496333 142.687668
46.733766 -129.119670 142.995336
45.835601 -127.762667 140.905329
45.672232 -127.450333 141.765666
49.606066 -125.733665 141.521662
49.713399 -125.896667 141.565328
49.983799 -125.600998 141.303329
50.091132 -125.764000 141.346995
50.059766 -125.883998 142.216003
50.219565 -125.623332 142.091670
50.224400 -125.816666 142.244670
47.663633 -126.922666 142.319997
47.662999 -126.595001 141.920664
47.650733 -127.578667 142.108332
48.792500 -126.236333 141.216003
48.899832 -126.399335 141.259669
48.600300 -126.302002 140.770665
49.035767 -126.263003 140.904999
48.354500 -126.436335 141.454005
48.457466 -126.651667 141.562673
48.584567 -126.713999 141.834335
47.313766 -126.039668 140.755335
48.334867 -125.940666 141.024668
48.418034 -126.191668 141.246668
47.553366 -125.743334 140.389333
48.505333 -125.652331 140.508667
48.051399 -125.607000 140.268000
46.639234 -124.223000 139.425669
46.367868 -124.522001 139.620667
46.229368 -124.616333 139.783666
51.203434 -113.673999 131.500661
51.573667 -113.525332 131.832662
51.751033 -113.918666 132.056661
50.952966 -114.093999 131.954000
51.061200 -114.124334 131.339330
51.003267 -114.588666 131.506332
51.545133 -114.780334 131.269663
51.292867 -114.585335 131.096664
52.437733 -117.622668 137.664668
52.359000 -117.550001 137.510005
51.929100 -116.560333 138.009333
50.019201 -118.552666 138.232661
50.061634 -118.333666 138.405329
50.460767 -117.874667 138.417664
50.745134 -117.913999 138.534332
50.596034 -118.184001 138.090663
50.617134 -118.578667 138.081329
49.664799 -116.781667 137.581334
50.012168 -117.457001 138.361664
49.737534 -116.700002 138.140335
50.045667 -116.994001 138.344666
53.163466 -117.467000 137.208003
53.328100 -117.399335 137.164668
53.779199 -117.547668 137.067668
53.382233 -118.045334 136.954005
53.811699 -117.795001 136.970668
53.153767 -117.951998 137.294006
53.185099 -117.865667 137.094340
52.959300 -118.102999 137.122340
57.149666 -116.240331 139.014333
57.064398 -116.775332 139.392334
57.702366 -116.247999 139.043335
58.155033 -116.541334 139.703003
57.605565 -116.705666 139.187332
58.113766 -116.609334 139.341334
51.309767 -116.453000 137.631337
50.198367 -116.342000 137.350667
50.572701 -116.147001 137.902334
50.973967 -116.320669 138.005666
54.205100 -114.099998 139.544998
53.856701 -113.995667 139.020996
54.245667 -114.648000 139.658000
54.332600 -114.173668 138.935669
53.843666 -114.454000 138.526667
55.314700 -115.573667 140.736333
55.171267 -115.341334 140.587997
55.921633 -115.135002 140.974665
55.377167 -115.777334 140.534999
55.763533 -115.517337 140.475667
55.545099 -115.134000 140.338999
55.680866 -115.278669 140.557332
56.897067 -116.185333 139.869003
56.397800 -116.513667 140.360662
56.617934 -116.545667 140.335332
54.262534 -113.509333 136.326335
54.539767 -113.287000 136.171666
54.749067 -112.830002 136.514333
54.772434 -113.042669 136.188329
53.558434 -115.329999 138.322667
53.388100 -115.011998 138.473999
53.888868 -115.956332 138.963664
53.570667 -115.787999 138.580668
53.593600 -115.308332 138.809667
54.028867 -116.274333 138.856664
54.282266 -116.260999 139.111333
58.900901 -115.855001 139.425334
59.413835 -116.360331 139.041331
58.993968 -116.463333 139.130330
58.797501 -116.035667 138.932337
59.285968 -115.885666 138.898671
59.454267 -115.868668 138.598668
59.684401 -116.354332 138.707001
58.830833 -116.532667 138.897664
58.694767 -112.650668 140.014333
58.520866 -112.749001 140.344996
58.508233 -112.338336 139.176336
58.241767 -112.161334 139.139333
58.152699 -112.535334 140.117996
58.060132 -112.260000 139.750331
58.141034 -112.067665 140.245000
58.454801 -111.983332 139.809336
58.721268 -112.160334 139.846339
59.090401 -114.908002 140.942668
59.027133 -115.443667 141.116669
58.670134 -115.130666 140.802002
58.669601 -114.918668 140.951665
37.303165 -116.327001 140.530665
37.679633 -116.826668 140.546000
38.002267 -116.167669 140.797999
37.782899 -116.596336 140.976669
37.564499 -116.368334 140.914001
37.782500 -116.253670 140.345998
38.003501 -116.664668 140.195333
36.885932 -116.386668 139.894999
36.779133 -115.908999 139.538996
36.710266 -116.105667 140.169998
36.702199 -116.424334 139.620000
36.331666 -115.887332 140.188665
32.571766 -116.370667 140.352661
32.144934 -116.750666 140.546661
32.045633 -116.639000 140.462662
32.216633 -116.053332 140.934998
32.498199 -115.980998 140.650665
32.162701 -116.465668 140.154999
32.406567 -116.707001 140.268661
32.028566 -116.486666 140.914993
31.782733 -116.357333 140.756994
31.886133 -116.462667 141.209997
31.405100 -115.880000 141.373332
31.863267 -116.170334 141.470998
31.719366 -115.522667 141.036667
31.873766 -115.740667 140.709997
54.013832 -111.388667 132.971670
53.511300 -111.304667 133.018331
52.628265 -113.732999 136.352331
52.766699 -113.546333 136.199331
53.463765 -113.431666 136.868663
53.326266 -113.624334 137.053996
51.923899 -112.300334 132.159999
52.124433 -111.912333 131.879669
52.333333 -113.227336 133.307332
52.829199 -113.563001 133.688334
51.594700 -113.551666 132.592331
51.934934 -113.439667 133.006999
52.056100 -113.239667 132.975332
55.289434 -112.143000 135.888000
55.630967 -112.041334 136.237000
55.621267 -112.090335 136.448664
55.789401 -111.417000 136.483332
55.534667 -111.242332 136.339666
55.928434 -111.531667 136.063334
54.786767 -111.792666 136.410665
54.660567 -111.868998 136.829666
58.880033 -115.831334 136.545995
58.558866 -116.026334 136.354996
59.417900 -115.723000 136.235331
59.185101 -116.168666 136.763000
59.396666 -116.121000 136.520335
59.754967 -116.129000 136.658000
59.196568 -116.217333 137.141668
59.864901 -116.196332 136.900330
59.938066 -115.785001 137.301661
59.872100 -115.666334 136.775665
59.518068 -116.237000 137.141332
59.591300 -115.827001 137.532995
59.155833 -115.862335 137.713664
58.758933 -115.821002 137.328664
58.963601 -116.263667 137.376333
59.453367 -116.385000 133.954666
59.669633 -116.214335 133.971334
59.268500 -116.088999 132.793004
59.584501 -115.835999 132.956334
58.918334 -116.498001 133.183670
59.920667 -115.685333 133.421000
59.909400 -115.884669 133.791336
59.906100 -116.393997 133.232335
59.006800 -116.615000 133.700668
56.156999 -110.901001 135.083003
54.860067 -111.580002 136.163330
55.039399 -111.425667 136.261663
55.218333 -111.203000 135.846664
54.221467 -111.085002 133.994665
54.435668 -111.416334 133.985998
53.900368 -111.443334 133.778997
54.633166 -112.902000 138.476669
54.655066 -112.754333 138.270671
54.301500 -113.273000 138.323669
54.258400 -113.166000 137.958338
54.472066 -112.837334 137.995005
26.250666 -124.899000 163.439000
26.059433 -124.861666 163.404668
25.151867 -123.993668 161.677002
25.237633 -123.701001 161.348999
57.397700 -136.085337 150.365672
57.737200 -136.052002 150.396006
25.299667 -124.273333 160.722997
26.708733 -124.341334 159.695999
26.305633 -124.332331 159.315999
26.372533 -124.148666 159.318665
26.888734 -124.658999 159.540665
25.913966 -124.093999 159.639333
25.989799 -124.192668 160.121333
26.010033 -124.632998 161.539001
25.711866 -124.652997 161.836004
26.455933 -124.768333 162.987000
26.686666 -124.806333 162.642334
26.741899 -124.478002 161.437663
26.947733 -124.767001 161.613332
26.976400 -124.780332 160.583664
26.304633 -124.598333 160.094335
26.610467 -125.203667 160.675669
26.365833 -124.731000 160.621999
26.881400 -125.528999 160.025335
26.882000 -125.093000 159.547668
27.129867 -125.333000 159.561000
26.967233 -125.417000 159.577667
27.215100 -125.657000 159.590998
26.522466 -124.650998 159.665670
26.769367 -124.784999 159.513000
62.176732 -115.021001 144.759003
62.040565 -115.006335 144.434667
61.999299 -114.870003 144.312002
61.711333 -115.377335 144.614665
61.736968 -114.590665 145.129003
61.449468 -114.827998 145.149002
61.233501 -115.349668 144.860001
61.375668 -115.256666 145.145330
61.487467 -114.999997 145.293666
57.301899 -127.760668 142.056005
57.037633 -127.643000 141.777669
57.247068 -127.821332 141.277669
57.793233 -127.519663 141.443995
57.623600 -128.520665 141.240331
57.745434 -128.941330 141.139994
57.244867 -127.905668 143.504333
57.374001 -127.850001 143.251333
57.374734 -127.774999 143.481328
57.271933 -127.695999 143.410665
57.175434 -128.070999 143.787664
50.096634 -116.058001 133.846670
49.980534 -115.984667 133.740005
50.340300 -115.821002 133.978668
50.224200 -115.747668 133.872004
49.995968 -116.050001 133.299337
50.472633 -115.560003 133.550339
50.618701 -115.867335 133.628332
50.159101 -116.289335 133.460668
50.392667 -116.334668 133.212997
50.608601 -116.149668 133.248662
54.398734 -119.022334 136.129333
54.654733 -118.864667 136.087001
53.828767 -118.914668 135.799998
53.520934 -119.080668 135.933665
54.728032 -118.653666 136.083664
54.667267 -118.552333 136.319667
54.879100 -118.607000 136.356333
53.726566 -118.564667 136.332331
54.066766 -118.134333 136.536331
54.443367 -118.296000 136.440999
54.649832 -118.697001 135.594330
54.737633 -119.005333 135.712667
54.314667 -118.784002 135.393331
42.923400 -122.419334 135.134669
45.133667 -123.713333 134.706004
44.901900 -123.965332 134.743668
44.890467 -123.412666 134.611003
43.948334 -123.237668 134.904002
44.250167 -123.057668 134.768000
44.025000 -123.575333 134.653000
44.043734 -123.610667 134.812002
44.556933 -123.163333 134.613332
44.482634 -123.944000 134.554001
44.447334 -123.931999 134.711334
44.692134 -123.554667 134.305669
44.234500 -123.186000 134.404668
44.025833 -122.940666 134.329666
45.760501 -122.820333 134.314000
45.635768 -122.632001 134.248667
45.868067 -122.643333 134.247670
44.486267 -122.495333 134.113002
44.561534 -122.727999 134.586995
44.685134 -122.402667 134.545329
44.336433 -122.666334 134.705999
44.158433 -122.274000 134.302333
44.248867 -122.280001 134.835332
44.488233 -122.063334 134.722661
43.383600 -121.512667 141.274333
43.892034 -121.366002 141.150996
43.854167 -121.701001 141.773331
43.815367 -121.337336 141.700333
43.805066 -121.841667 141.341995
43.490433 -121.712667 141.626999
48.458233 -123.480665 138.782333
47.978600 -123.225998 138.638667
48.158466 -123.093330 138.492335
50.691633 -120.559001 137.485998
51.951368 -120.682335 136.854329
51.953134 -120.481667 137.151667
51.641501 -120.426000 136.577662
51.333401 -120.675001 136.661331
51.624967 -120.928668 136.972331
51.562267 -119.674334 137.541997
51.135267 -119.959999 137.513997
51.097500 -120.407333 137.213664
52.022200 -119.820000 136.844996
52.064833 -119.457334 137.287664
51.154401 -118.324666 137.957001
50.912767 -118.199000 138.026998
39.423833 -116.932999 142.300334
39.727867 -117.320666 141.670664
39.267768 -116.994334 141.765666
46.600733 -118.080999 138.037003
46.399333 -118.099998 137.565669
46.564700 -118.322332 138.014002
45.948433 -117.939664 137.069331
46.200033 -118.164332 137.036331
46.181834 -117.686666 136.889664
46.350433 -117.727000 136.770996
46.522733 -119.535001 139.066671
56.508834 -116.099665 138.662999
56.200400 -116.151667 138.640335
56.053368 -116.603333 139.037003
56.496801 -116.109332 139.200663
56.829567 -116.184998 139.382665
54.702033 -114.758001 139.414668
54.929900 -114.809334 139.601664
54.634700 -114.321668 139.380000
54.451300 -115.204002 139.783666
54.858599 -115.585668 139.922668
55.220267 -116.074336 139.912999
55.181433 -115.826001 140.141332
49.553167 -116.222669 136.966334
49.779867 -116.325668 137.213664
49.384066 -116.004333 137.433334
49.471766 -116.593000 137.355331
49.032134 -116.079000 137.319997
49.442866 -116.187002 137.659002
49.245066 -116.490000 137.108002
60.136500 -115.186999 143.035329
59.818600 -115.061999 142.651998
59.866999 -115.396998 142.222997
60.462799 -115.756999 142.360662
60.609166 -115.707331 142.836995
60.200133 -115.098666 141.979665
60.936799 -115.385000 142.560333
60.675067 -115.338333 142.059001
58.642534 -114.405334 141.807002
59.260167 -114.719332 142.222000
58.893701 -114.397667 142.133667
59.030401 -114.153333 142.317668
59.217167 -115.388667 141.336334
58.834967 -115.088999 141.860336
58.585167 -114.919668 141.695002
60.209633 -114.200666 142.001999
60.312133 -114.598999 142.283661
60.175700 -115.402667 139.977336
60.011866 -115.314667 140.336334
59.250567 -115.259000 140.364334
58.905067 -115.231000 140.526001
59.436433 -115.148000 140.631337
59.819167 -115.980667 140.339671
47.926567 -125.926000 136.030670
48.307532 -125.195000 139.628332
48.234833 -125.425331 139.067337
48.711699 -125.351331 139.968999
49.030099 -125.454333 139.891001
49.104033 -124.256668 137.891668
48.788133 -124.108668 138.005335
48.622266 -124.408000 138.601334
48.603266 -124.195666 138.306000
48.082134 -125.013000 137.165003
48.337134 -125.120333 137.310003
48.468267 -125.015999 137.861669
48.594934 -125.117332 138.135335
47.832699 -123.827998 139.220332
48.161199 -123.870664 138.945663
48.379499 -124.367666 138.875000
48.397432 -124.830332 139.145335
48.228432 -124.866999 139.243998
47.731833 -124.650002 139.556330
47.881999 -124.361666 139.248332
48.830067 -125.238998 138.553335
49.188300 -124.866333 138.192668
48.891399 -124.930667 138.601669
49.046132 -125.321335 139.181671
48.794932 -125.261335 139.451670
48.901501 -125.181666 138.211670
49.253667 -125.192998 137.878667
48.925233 -125.611666 139.375005
48.701533 -125.444331 138.990336
47.715099 -123.609667 135.119329
47.793500 -123.692668 135.002996
47.558566 -123.857335 135.510330
47.737501 -124.160334 136.082001
52.699100 -121.636668 134.436996
52.249001 -121.274668 134.491664
52.744801 -121.556333 134.305664
52.401001 -121.139333 134.563665
53.174700 -122.000000 134.156331
52.440834 -121.862335 134.373998
52.257100 -121.829669 134.671997
52.150834 -121.920001 134.681000
53.002167 -122.242668 134.021001
52.764100 -122.386668 134.052668
52.752900 -122.111333 134.485998
52.705101 -122.056999 134.978668
51.654133 -122.140333 134.962001
51.172565 -121.904999 134.873332
50.983799 -122.118332 135.018997
51.672867 -121.554334 134.928335
51.664767 -120.999334 134.748001
51.510666 -120.689667 135.397669
51.745599 -120.530665 135.411667
60.020599 -127.544334 136.056335
59.885366 -127.349668 135.663335
59.202432 -127.536334 136.483999
59.964934 -127.851003 135.963003
60.203635 -127.978335 135.780334
59.302299 -127.599335 135.745667
59.334733 -127.441002 135.364329
59.339966 -127.328667 135.965998
58.912099 -127.687332 136.151337
58.642000 -127.483002 136.964666
58.734099 -127.402334 136.635666
58.013000 -127.158333 137.131999
57.754234 -127.095332 137.384328
53.604701 -116.179334 137.572667
53.337001 -116.116000 137.371002
53.771968 -115.926000 137.972666
53.616467 -115.708333 138.105337
56.226434 -127.414998 143.948669
55.758334 -127.287333 144.012670
56.524633 -127.713999 143.405329
56.291367 -127.645999 143.310664
56.631134 -127.166667 143.316335
48.977366 -119.932332 138.615997
49.213734 -120.875664 138.435664
49.445733 -120.796664 138.511998
49.796267 -120.093664 138.466665
49.514633 -120.113665 138.379328
49.656334 -119.803665 138.530665
49.466201 -119.988332 138.812332
49.266066 -120.525332 138.827332
48.700600 -120.111331 138.706334
48.692167 -120.616997 138.685333
58.179433 -139.403666 146.700668
50.722033 -137.887334 132.210999
57.605034 -134.280665 124.555331
58.165367 -134.178335 124.111666
57.850501 -134.212001 124.200333
59.579966 -134.310664 127.243998
59.411433 -134.199997 127.089333
59.775599 -134.133001 127.041667
59.968333 -134.144663 126.754333
57.390367 -132.790665 130.435333
56.939667 -132.881332 130.534332
58.965434 -136.526998 133.776998
59.003934 -136.712331 133.941330
58.960767 -136.527334 134.111333
59.335800 -136.410665 134.330002
62.136233 -128.244003 133.296000
61.871799 -128.087001 133.241999
62.632399 -128.271004 133.869670
61.713333 -128.152336 133.606669
61.703932 -128.073001 133.357335
61.436334 -127.838000 134.847997
61.069901 -128.011998 134.875331
62.023000 -128.344002 134.870331
61.207400 -127.963999 134.432332
61.325334 -127.857333 134.467667
62.073500 -128.181000 134.484665
61.734066 -128.598999 134.346995
61.897799 -128.623001 134.061000
61.673533 -127.906667 134.341334
61.464633 -128.099668 134.065664
61.266932 -127.976667 134.181666
47.555266 -134.574331 138.799332
46.990766 -134.063334 138.731664
47.046933 -134.182668 138.932002
47.344667 -134.470001 138.985667
45.803567 -125.952665 134.950002
46.141900 -125.888667 135.144333
45.943233 -126.116333 135.073334
45.601100 -125.259666 134.765671
45.587667 -125.649666 134.844004
46.098633 -124.926333 134.889669
46.217799 -124.769002 135.254003
46.407633 -125.542999 135.310333
46.512333 -125.158000 135.204000
45.973400 -125.651667 135.244003
45.835833 -124.922668 135.332672
48.132167 -126.385333 134.996999
47.934066 -126.497665 135.105331
47.993233 -126.638664 134.812332
48.311300 -126.922000 135.182668
49.245434 -125.155332 137.367666
51.248933 -135.363668 136.458669
51.013268 -135.633667 136.766337
51.682700 -135.424001 136.450338
52.683966 -125.592331 140.842000
52.658433 -125.422666 140.689331
52.067699 -125.174332 140.127665
51.966534 -125.043999 140.233332
51.231199 -125.612999 141.094330
50.910599 -125.612333 140.680664
50.809433 -125.482000 140.786331
52.088732 -125.632665 141.028666
52.402566 -125.209000 140.399333
52.301401 -125.078667 140.505000
51.965368 -125.162000 141.017995
54.544168 -125.825668 139.461334
54.638067 -125.726003 139.870336
54.345834 -125.655001 138.911336
54.049267 -125.124334 138.775665
53.810699 -125.171669 139.843333
54.321766 -125.355337 139.557002
54.376534 -125.320669 138.988668
51.178401 -124.651334 137.711004
51.609166 -124.691335 137.487671
51.883667 -124.936668 137.842000
51.733767 -124.968333 137.817668
51.847167 -124.851000 137.468002
51.243633 -120.285001 137.956665
50.748300 -120.233665 138.143997
50.427966 -120.358332 137.887329
51.309700 -120.759333 137.520665
49.579999 -121.673999 138.459000
49.661667 -121.193998 138.424998
50.010034 -120.911667 137.921331
49.975367 -120.948664 138.132996
50.090167 -120.649666 137.987996
50.412734 -120.795331 138.114995
48.627434 -122.725001 138.362335
48.694467 -122.821668 138.504333
48.973900 -123.145335 138.215001
49.296633 -125.254331 137.002996
49.285633 -124.286336 137.661336
49.727201 -122.981333 136.426000
44.836033 -131.376338 139.595332
45.127033 -131.189006 139.740667
45.102533 -132.110331 139.467000
45.291766 -132.287333 139.812332
47.258801 -134.398000 135.467000
47.099434 -134.191335 135.311000
47.256901 -134.132004 134.916667
47.807868 -134.654002 134.544001
47.499434 -134.414337 134.458669
47.724701 -134.578334 135.158000
45.853900 -132.758001 137.870667
45.607700 -132.456329 138.132665
45.594866 -132.758001 138.626668
45.617301 -132.571665 138.557332
45.842300 -132.748337 139.018667
46.059767 -132.964666 139.148997
46.337832 -133.372335 137.655334
46.320566 -133.640330 137.962001
45.956666 -133.443995 138.024333
46.191934 -133.732997 137.904332
45.961466 -133.133001 137.985667
46.039932 -133.687998 138.548335
46.279100 -133.671661 138.449666
46.090767 -133.376663 138.482666
46.210267 -133.333328 138.922663
45.851599 -133.393000 138.581334
45.755966 -132.165334 135.529002
45.946665 -132.404332 135.377335
46.035932 -132.298996 135.491999
46.090099 -132.448995 136.293666
46.326166 -132.731328 135.658000
46.321932 -132.682994 136.022003
45.763266 -132.555664 136.258336
46.165565 -132.908000 135.369665
46.131332 -132.996999 136.047002
46.209866 -133.229335 135.722666
45.621466 -132.163666 135.720332
45.488400 -132.282664 136.133001
54.047900 -115.643669 129.912999
53.527167 -115.659668 129.863998
53.660600 -115.612333 129.527669
53.981967 -115.232002 129.392003
53.920334 -115.419001 129.369339
52.807167 -115.447001 129.452332
52.440100 -115.337669 129.460332
52.107267 -115.355667 129.811330
52.102400 -115.795334 129.427668
52.244900 -115.508334 130.294332
52.633766 -115.559001 130.054998
51.846232 -115.074666 131.550664
51.762533 -115.120333 131.204997
52.035266 -115.347666 131.345998
52.216399 -115.538668 131.388000
53.305368 -115.973999 130.467331
52.750267 -115.798999 130.595668
53.540101 -116.307666 130.989665
53.055332 -116.560666 130.644002
52.560333 -115.893000 131.213669
52.529199 -116.434667 130.741669
53.258068 -116.668666 131.433665
49.800200 -132.297663 129.808665
49.740901 -132.130671 130.297663
49.925967 -131.889664 129.681330
52.084334 -133.353999 130.394002
51.700133 -133.150330 130.800003
51.326701 -132.973328 130.612005
47.273366 -129.829997 134.072998
47.293533 -129.934998 133.821335
47.346400 -129.419662 133.421336
47.314566 -129.728663 133.525670
46.878666 -129.351003 133.750331
52.593867 -129.501668 131.187663
47.951467 -127.755664 134.451004
47.778234 -127.957998 134.614670
47.665667 -128.216665 134.452667
47.946634 -127.790998 134.225337
51.512901 -128.239003 130.586334
51.265834 -129.412669 130.381332
51.135301 -128.862330 130.064000
51.243668 -128.871002 130.425334
50.950134 -128.744334 130.176336
52.820766 -127.382668 130.744329
52.499167 -127.160667 130.630330
51.955001 -128.119334 130.793996
51.797568 -128.456334 130.709330
47.120200 -130.021662 131.689667
47.431100 -130.638331 132.332001
47.188466 -130.319997 131.470001
47.344866 -130.361664 131.170003
46.966501 -130.113998 132.159663
47.075600 -130.715668 131.731333
47.384967 -130.087997 132.603999
47.189967 -129.755997 131.993998
47.282667 -129.736664 132.365331
47.231766 -129.697998 131.501002
47.568267 -131.981328 133.036001
47.480466 -131.515996 132.619003
47.719200 -132.558996 132.989334
47.046266 -131.844335 132.877335
47.173899 -132.034002 132.345668
47.650633 -131.623662 131.976003
47.348166 -132.488332 132.247335
47.414066 -132.511668 131.965998
51.714967 -129.137670 130.614665
52.000100 -129.602336 130.763997
52.780033 -128.975001 130.725332
52.664866 -129.589335 130.641332
52.415867 -128.618668 130.472666
52.061034 -128.595998 130.268667
49.470133 -130.532003 130.039332
49.658034 -129.656998 129.604335
49.177867 -129.911997 129.677668
52.518234 -125.916334 132.084997
52.173233 -126.197332 131.643997
52.238200 -125.971331 131.621002
52.921300 -126.322332 131.197667
52.563334 -126.537666 130.937668
52.449299 -126.998667 131.259328
52.199165 -126.861333 131.250661
48.916733 -125.683334 134.218338
48.883834 -126.380335 133.876668
60.435134 -126.844335 127.416334
60.442767 -127.071335 127.145665
49.881866 -117.580668 132.619670
49.720300 -117.726334 132.650004
49.067366 -117.249334 132.865000
49.645067 -117.055333 133.061000
49.910500 -117.175334 132.823334
48.989699 -117.509000 132.553335
49.274667 -117.990000 132.771337
48.907033 -117.826335 133.134333
49.118467 -117.332001 133.261332
54.432733 -113.267334 135.748998
53.559466 -113.638003 135.613998
53.757133 -113.805336 135.937663
54.155500 -113.489667 135.903666
54.357133 -117.314667 131.186666
54.039500 -117.136335 131.014999
53.885366 -117.973000 131.887334
54.261133 -117.731667 131.662664
53.541599 -117.618334 131.603002
53.599733 -117.198669 131.206665
53.934233 -117.002665 131.597336
53.450134 -117.101000 131.756332
55.985467 -124.512334 133.509333
56.123267 -124.996999 133.551331
56.455067 -124.952667 133.650335
53.169501 -118.770002 133.197998
53.503434 -118.595334 133.164332
53.180800 -119.068667 133.600332
53.670134 -119.257668 133.269999
53.991300 -119.181999 133.442998
53.871367 -118.724002 133.600001
54.094133 -118.532003 133.442337
50.915166 -115.007334 134.658000
50.948067 -115.145332 134.816666
50.999800 -115.023000 133.448339
50.852300 -115.224002 133.682337
50.946167 -115.187668 134.051336
51.171134 -116.008001 132.973328
50.630466 -115.706334 132.864670
50.735001 -115.966334 132.519333
51.074999 -115.559667 132.062998
51.020433 -115.422666 131.674662
51.088699 -115.042999 131.931000
59.227834 -128.483007 132.188665
59.651834 -127.873001 133.370336
60.041400 -127.735669 133.213333
59.980166 -127.914004 132.920334
60.211900 -127.657336 132.860001
56.848766 -125.138334 134.695999
57.420200 -124.923668 135.333669
57.072600 -125.172335 135.207667
55.968135 -123.112000 136.138000
56.386167 -123.702998 136.643000
49.654767 -120.945333 133.219666
49.875467 -120.461001 132.914998
49.292634 -120.561333 132.812663
48.572534 -121.544668 133.374664
49.094234 -121.409999 133.416662
48.559467 -120.896667 133.477000
48.832101 -120.830332 133.488332
48.361333 -123.760002 136.079336
48.134033 -124.010668 136.174001
48.372700 -123.885002 135.886668
48.114000 -123.778002 135.713999
49.167933 -122.909668 136.322001
48.871499 -123.420667 136.530004
53.916134 -123.790334 133.743668
55.611768 -123.573001 134.098333
55.325001 -123.743665 133.736333
56.171900 -123.740000 134.349335
56.055801 -123.561668 134.379333
55.489600 -123.803665 133.396667
55.739933 -123.682332 133.490000
56.147867 -124.096334 134.133667
56.144800 -123.826668 133.638336
55.980466 -123.615667 133.618668
56.407434 -123.559001 134.937998
56.172601 -123.317668 135.211334
57.358467 -124.390999 136.344666
57.134933 -124.242666 136.578334
57.233934 -123.859001 135.981333
56.781734 -123.792999 136.500000
59.869567 -127.217664 129.950668
59.334400 -126.989334 129.705332
58.722434 -128.098000 129.368001
59.008867 -128.180331 129.221670
59.479401 -128.092995 129.400670
59.349701 -128.110995 129.615336
59.306667 -127.733996 129.855001
59.185434 -128.644999 129.792669
59.383633 -129.333664 130.191666
59.410199 -129.085332 129.888000
59.141200 -128.246666 130.202337
59.028467 -128.357333 130.527339
58.957100 -128.208997 130.836339
58.414666 -128.184667 130.116002
56.312934 -132.790334 130.471670
56.022800 -132.910995 130.724330
56.214867 -132.640330 130.783000
55.843999 -132.506332 130.773336
55.311167 -133.266998 130.709661
54.892934 -133.386998 130.901332
49.735533 -124.877335 132.963664
50.031867 -124.712334 132.918335
50.069366 -124.766668 132.640671
59.793032 -126.979335 134.111003
60.002700 -127.159335 134.290665
59.808066 -127.198001 133.381668
60.221598 -127.137001 133.649668
57.054034 -126.695000 135.322667
59.037366 -127.132334 133.713003
58.759434 -127.806999 133.863332
58.426434 -128.187332 132.819336
58.732900 -128.093999 133.608999
58.855334 -128.262334 133.389002
58.827234 -128.092331 132.236669
58.850834 -127.550334 133.403000
58.295867 -127.779668 133.448334
59.233800 -128.203669 133.230006
59.366001 -128.394669 132.301331
58.138866 -127.475334 135.054001
57.944667 -127.460665 135.153336
52.081000 -132.312668 130.354670
52.357367 -131.904332 131.072998
52.296666 -132.878667 130.508336
52.823900 -133.010000 130.806335
53.000900 -132.546336 130.957336
54.347534 -132.085332 130.700999
54.093634 -131.880000 130.831665
54.716733 -131.719335 131.026667
54.696067 -131.677002 130.533335
54.685933 -131.208333 130.555339
54.330001 -131.408666 130.728668
57.366300 -137.332667 135.605337
52.631733 -130.674001 131.129333
53.119832 -130.078339 131.582001
52.805400 -130.035670 131.315999
52.523666 -130.417333 131.059331
52.892466 -130.786672 131.379003
53.025734 -130.534337 130.871668
53.111101 -130.304667 130.935003
53.098832 -130.572673 131.575002
52.101967 -131.120331 130.784663
52.361066 -130.723002 130.374334
52.346367 -131.377996 130.989665
52.095966 -131.200999 130.225001
52.555934 -131.090998 131.107000
52.280899 -131.750666 130.417002
52.725633 -130.765004 130.653336
52.726967 -131.312002 131.267670
52.986000 -130.971670 130.862335
46.793433 -117.425001 135.614329
46.612000 -117.828669 135.679662
46.377366 -117.715335 135.890996
46.255866 -117.553668 136.026332
46.743899 -117.046333 136.172328
46.578967 -117.201001 136.315994
47.810500 -117.328669 137.798665
47.936067 -117.121335 137.891001
47.531100 -118.189000 138.197667
47.694199 -117.838999 138.434006
47.506632 -117.696668 138.049332
47.592999 -117.625333 138.238002
47.377733 -121.351334 133.102666
47.143566 -121.064334 132.989665
47.384533 -120.650002 132.863002
48.153734 -120.565333 132.779663
48.522101 -120.965332 132.956329
48.133200 -121.308668 133.108332
47.701266 -120.303668 132.732666
49.350033 -125.636332 132.040665
49.325733 -125.385000 132.470662
49.835433 -125.585665 132.652003
49.660900 -125.020335 132.661997
49.862534 -124.925336 132.560333
49.848334 -128.403666 145.213003
49.890368 -128.571335 145.010335
50.207667 -128.952998 145.441004
50.045901 -128.829000 145.084005
50.562200 -128.515666 145.900004
50.674633 -128.164665 145.957001
50.416533 -128.047330 145.756002
51.362567 -130.713999 145.082001
51.616033 -130.826996 145.162999
51.638166 -131.152995 144.802002
51.084900 -131.138667 144.691335
50.990566 -131.560333 144.718669
51.290366 -131.461665 144.748337
38.501301 -123.607000 136.997670
38.049201 -123.654335 137.146667
38.595834 -124.053332 136.794668
38.519367 -123.795998 136.692001
54.476566 -130.612996 146.105998
55.642733 -127.470001 143.276332
55.845300 -127.528333 143.255666
55.529700 -127.502335 143.451335
56.013833 -127.692665 143.501333
55.348834 -127.936000 144.148000
55.524934 -128.071665 144.117671
55.735101 -126.984001 143.670003
55.853067 -127.944664 143.879333
55.395400 -127.676999 143.838999
55.214900 -127.553998 143.865331
55.403633 -127.382668 144.391337
55.472899 -127.256668 143.050334
55.667233 -127.321668 142.932999
55.347333 -126.744001 143.145671
55.355766 -126.856333 142.653336
55.250900 -126.524000 142.627004
55.380400 -126.899333 142.131668
55.166901 -126.576998 142.117671
55.662100 -126.695000 142.150670
56.186466 -126.970001 142.379669
56.077966 -127.271001 142.414001
55.962599 -127.011002 142.966670
56.174567 -126.993334 143.268336
56.184166 -127.407333 142.776337
56.437200 -127.509000 142.929001
55.869799 -127.380000 142.912333
58.141734 -129.690333 141.938665
58.112301 -130.072667 141.657664
56.223333 -117.339666 136.967336
55.973766 -117.672000 136.941335
55.898233 -117.135333 137.227336
56.431466 -117.456334 137.299667
56.376900 -116.676333 137.590001
56.938732 -117.155665 137.034999
56.987133 -117.198334 137.239334
57.022766 -116.438001 137.297999
57.136733 -116.747665 137.078664
56.741199 -116.417000 137.625666
57.837634 -117.211667 134.797668
58.003934 -117.156667 134.200338
58.440000 -116.967333 134.573003
58.525200 -116.870667 135.200668
58.195733 -116.830335 135.646667
57.944233 -116.982002 135.616333
58.386866 -117.541667 135.126663
58.580634 -117.304334 135.435994
58.878967 -116.627998 135.215332
59.126834 -116.543666 135.050664
58.956801 -116.361666 135.548996
59.371567 -116.616669 135.377330
59.616500 -116.483335 135.622996
47.258366 -134.164337 137.968333
47.657167 -134.697001 137.785334
47.598766 -134.386668 137.548335
47.425499 -134.390004 138.418666
46.745867 -134.355001 137.691666
47.207500 -134.510000 137.520665
47.692266 -134.613668 138.432668
47.270467 -134.907669 138.482335
47.530333 -134.867335 138.257670
45.794933 -133.990667 139.510000
45.882833 -133.916000 139.341670
45.037666 -132.454330 138.189336
44.356766 -132.372665 138.384669
44.595633 -132.441996 138.148336
44.386267 -132.464666 137.969335
44.913534 -131.891998 138.022669
45.147366 -132.516998 138.342336
44.879332 -132.449666 138.458003
45.678401 -133.421672 139.987666
45.686900 -132.774002 139.704330
45.628900 -132.754003 139.326665
45.729267 -133.373001 139.131332
45.806000 -133.529002 139.011002
45.688700 -133.701004 139.649999
45.756367 -132.984004 140.076665
46.224567 -133.015335 139.803329
45.676900 -132.977336 139.011332
46.243567 -133.308334 139.779663
42.724368 -127.351667 134.746668
43.996501 -127.425334 134.915670
43.671967 -127.043999 134.710999
43.554565 -127.014664 134.545329
42.944734 -126.935000 134.722666
48.442767 -135.013000 130.838664
48.430134 -135.089666 130.420334
48.380333 -134.760000 130.208669
48.278833 -134.731003 131.010000
47.907433 -134.865331 130.672668
48.014132 -134.468999 130.837336
48.786734 -135.753001 130.787999
48.577400 -135.888000 130.859334
48.909733 -136.327672 130.819331
48.731767 -136.165670 130.894333
48.522433 -136.300669 130.965668
48.920934 -134.975332 130.284999
49.233033 -134.911667 130.090998
49.258233 -134.909332 130.274999
48.838701 -135.004333 130.568329
48.948167 -134.833333 130.450999
48.714666 -134.263667 129.903336
48.619598 -133.975001 129.972000
48.898733 -133.760335 129.870997
49.159400 -133.887334 129.723333
49.669600 -134.797002 130.063995
49.352600 -134.755335 130.183665
49.377167 -134.718002 129.818334
49.314934 -134.451335 129.632004
48.158967 -135.631663 131.867666
48.270301 -135.918666 131.840332
47.506001 -135.898000 132.054337
47.410467 -135.681000 131.659002
47.471334 -135.545329 131.379003
47.333533 -135.419001 131.694997
47.995200 -135.383331 131.350998
49.326366 -136.641998 132.427663
49.344034 -136.239665 132.597997
49.487167 -133.589335 130.285004
50.210901 -132.846664 130.350667
50.329666 -134.679001 130.213333
50.208366 -135.159668 129.695669
50.813433 -135.392665 129.897003
57.020134 -134.760997 128.246000
55.099632 -132.374003 130.354665
55.406334 -132.812998 130.692332
55.651933 -132.776998 130.714666
55.629832 -132.292669 130.288335
55.685699 -132.641332 130.165003
33.165667 -135.027669 139.533671
32.874200 -134.858002 139.796672
32.910267 -135.100667 140.057668
32.768901 -135.040670 140.268667
35.088399 -135.268331 138.479335
35.135866 -135.404332 138.379333
35.186865 -135.551666 138.778666
35.225866 -135.528000 138.488002
35.311132 -135.613998 138.590001
35.337466 -135.407333 138.590332
33.827534 -135.223668 139.069997
33.470067 -135.308334 139.493001
37.636200 -123.496333 136.746002
37.045834 -123.598333 136.697332
36.801333 -124.104998 136.700663
38.061534 -123.952998 136.674998
38.156267 -124.449666 136.708328
38.363033 -124.414668 136.816666
37.254901 -124.818667 136.755661
37.625033 -124.748001 136.770996
30.713200 -126.369334 139.155996
30.203367 -127.338999 139.959330
30.236033 -127.618332 140.097666
30.356100 -126.957334 139.748001
30.567366 -126.827001 139.622335
29.934900 -126.601667 139.845332
30.016400 -126.273000 139.806000
30.542667 -126.435333 139.523666
30.412900 -126.237000 139.610001
29.604067 -126.384000 139.790329
30.403533 -124.599335 138.996002
30.312167 -124.795331 138.483999
30.110200 -125.571665 139.566671
29.783766 -125.600665 139.888000
29.487400 -125.312665 140.010666
30.345599 -125.754667 139.447001
30.529666 -125.513000 139.148666
30.440300 -126.038666 139.471664
29.877967 -126.196668 139.417999
30.209433 -126.312335 139.095332
30.734833 -125.794001 138.925329
29.926434 -119.598666 143.635000
29.976934 -119.747999 143.955999
41.206399 -121.337334 146.415003
41.161933 -121.037999 146.565333
38.862034 -120.480334 148.983002
38.878667 -120.254667 148.819336
38.654467 -119.863668 148.682668
50.056399 -134.391327 144.991999
50.226400 -134.126663 144.554331
49.808533 -134.121663 145.013667
50.851767 -134.015330 144.518331
50.706500 -133.745997 144.582667
51.176734 -134.140666 144.416000
51.044366 -134.501663 144.860998
51.683000 -134.915665 143.950668
52.078533 -136.318665 143.276998
