ply
format ascii 1.0
comment Created by Open3D
element vertex 1349
property double x
property double y
property double z
property uchar red
property uchar green
property uchar blue
end_header
0.185232 -0.37231 0.335445 0 0 255
-0.113607 0.289927 -0.199431 0 0 255
-0.017765 -0.008216 0.070364 0 0 255
0.506037 -1.47194 1.50666 255 0 0
0.099092 -0.043847 0.375866 0 0 255
0.571151 -1.03197 0.526465 0 0 255
0.831183 -2.20025 2.29042 255 0 0
-0.02904 0.116055 -0.089463 0 0 255
0.35162 -0.388766 0.57316 255 0 0
2.52467 -6.85945 6.62242 0 0 255
0.144231 -0.33818 0.381258 255 0 0
-0.166764 0.449946 -0.431399 0 0 255
-0.046741 0.055039 -0.061466 255 0 0
-0.067016 0.320301 -0.32921 0 0 255
-0.361967 0.852699 -0.74022 255 0 0
0.786433 -2.17135 2.55831 255 0 0
-0.083916 0.03531 -0.028814 0 0 255
-0.07072 0.0845 -0.097513 0 0 255
0.073238 -0.189457 0.114131 255 0 0
0.403403 -1.10741 0.852198 255 0 0
0.018601 0.114575 0.261863 255 0 0
1.01841 -2.84958 2.70474 0 0 255
0.023269 -0.064627 0.064418 0 0 255
-0.185291 0.489458 -0.492759 255 0 0
-0.122611 0.314925 -0.33007 255 0 0
0.131632 -0.501626 0.258171 255 0 0
0.252636 -0.569579 0.452801 0 0 255
0.1876 -0.362158 0.353023 255 0 0
-0.028855 -0.127273 0.06919 255 0 0
0.027254 -0.082633 0.088821 0 0 255
0.008048 -0.071355 0.068181 0 0 255
0.029098 -0.479149 0.492966 255 0 0
0.107668 -0.041151 0.043411 255 0 0
0.109183 -0.472068 0.513216 255 0 0
0.233065 -0.939505 0.951796 0 0 255
-0.181251 0.725057 -0.726498 255 0 0
0.128941 0.424724 0.052925 0 0 255
-0.084908 -0.529925 0.121677 0 0 255
0.766785 -2.46408 2.63403 0 0 255
-0.201945 0.712401 -0.727806 255 0 0
0.845018 -3.02741 3.07206 0 0 255
0.67777 -2.98051 2.9612 0 0 255
0.048449 -0.009027 0.042236 255 0 0
-0.016352 -0.049748 0.160172 255 0 0
0.038331 -0.489678 0.441951 0 0 255
0.269876 -0.391134 0.252119 0 0 255
0.190902 -0.582547 0.567727 0 0 255
0.876904 -2.62406 2.94542 255 0 0
-0.709919 2.10498 -2.01793 255 0 0
-0.030639 -0.008648 0.173447 0 0 255
1.05135 -2.65126 2.69966 255 0 0
0.153978 -0.23539 0.378062 255 0 0
0.019742 0.022462 0.04498 0 0 255
0.017288 -0.096724 0.124637 255 0 0
0.674224 -2.708 3.06401 0 0 255
0.208778 -0.976863 1.08429 0 0 255
-0.018348 0.219772 -0.189163 255 0 0
-0.12423 0.466467 -0.471083 255 0 0
0.741632 -1.73979 1.78237 0 0 255
-0.067838 0.452246 -0.508138 0 0 255
0.262713 -1.03344 1.10062 0 0 255
0.422467 -2.5029 2.94698 0 0 255
0.230677 -2.27736 2.43132 0 0 255
0.27651 -1.04261 1.17055 255 0 0
0.008713 -0.053163 -0.005433 255 0 0
0.280423 -0.474226 0.379575 255 0 0
0.309589 -0.770159 0.569448 0 0 255
0.041711 0.093216 0.025077 255 0 0
0.024803 -0.043373 0.129236 255 0 0
0.526306 -0.401827 0.371183 0 0 255
-0.04485 -0.218826 0.169153 255 0 0
0.139346 -0.897327 1.10986 255 0 0
0.018407 -0.575015 0.832857 255 0 0
-0.068008 -0.584448 0.67275 255 0 0
-0.107714 0.452785 -0.747872 0 0 255
0.114058 -0.572666 0.739434 0 0 255
-0.109866 0.325607 -0.383891 0 0 255
0.063677 0.02177 -0.013628 0 0 255
-0.125653 0.531334 -0.27805 255 0 0
0.587213 -1.08458 1.55246 255 0 0
-0.316454 0.74427 -0.727546 255 0 0
0.009431 -0.031187 0.060022 0 0 255
-0.090865 0.219475 -0.263144 0 0 255
-0.155216 0.464524 -0.510619 255 0 0
0.18583 -0.706235 0.776367 255 0 0
-0.074309 0.305903 -0.172528 255 0 0
-0.132566 0.292224 -0.283181 255 0 0
0.695261 -1.51252 1.15724 0 0 255
1.31412 -2.96346 3.26012 0 0 255
0.426271 -0.69279 0.803552 255 0 0
-0.007054 -0.063121 0.00979 0 0 255
0.16354 -0.655352 0.850545 0 0 255
0.210155 -0.356573 0.488368 255 0 0
0.390717 -0.806685 1.08944 255 0 0
0.008129 -0.018865 0.020606 0 0 255
0.089472 -0.290006 0.347967 255 0 0
0.417725 -0.83979 0.902099 255 0 0
0.505724 -1.21156 1.06253 255 0 0
0.39253 -1.06338 1.01707 0 0 255
0.884433 -0.700784 1.1605 255 0 0
0.091396 -0.220543 0.1676 0 0 255
0.699985 -0.977361 1.23468 255 0 0
-0.02394 -0.420871 0.354341 255 0 0
0.857985 -1.72771 1.91263 0 0 255
0.523967 -0.636748 1.12054 255 0 0
-0.122933 0.069835 -0.09401 0 0 255
0.226351 -0.467207 0.487944 0 0 255
-0.00344 0.033919 -0.025584 255 0 0
-0.088477 0.47855 -0.449538 255 0 0
0.270797 -0.750077 0.841117 0 0 255
0.484427 -1.39068 1.5294 0 0 255
0.049825 -1.04971 0.9032 255 0 0
-0.149159 0.667945 -0.786726 255 0 0
-0.163979 0.410098 -0.456437 255 0 0
-0.122202 0.440668 -0.45908 255 0 0
1.1731 -3.36745 3.70984 255 0 0
0.367215 -0.917402 0.996337 255 0 0
0.179451 -0.446695 0.504383 255 0 0
-0.029513 0.127343 -0.118423 0 0 255
0.542691 -1.12908 1.24043 0 0 255
0.192079 -0.684502 0.775044 255 0 0
0.259205 -0.453732 0.460738 0 0 255
0.6068 -0.812912 0.940811 0 0 255
0.186687 -1.08863 1.08653 255 0 0
0.378149 -0.201639 0.411156 0 0 255
-0.120525 -0.153685 0.145944 255 0 0
-0.133607 0.373441 -0.197042 255 0 0
0.082624 -0.427379 0.308724 255 0 0
0.043009 0.003335 0.126934 0 0 255
-0.161058 0.343298 -0.513184 255 0 0
0.210035 -0.807731 0.716342 255 0 0
0.076032 0.115989 -0.311295 255 0 0
0.077753 -0.140909 0.170722 0 0 255
0.044607 -0.078193 0.089215 0 0 255
-0.012143 0.024233 -0.022766 255 0 0
0.286212 -0.780883 0.943409 255 0 0
-0.131096 -0.13964 -0.06646 0 0 255
-0.14267 0.22794 -0.21313 0 0 255
0.280658 -0.818638 1.07957 0 0 255
0.319943 -0.682259 0.732798 0 0 255
1.27108 -2.9062 3.26139 255 0 0
-0.089239 0.336946 -0.53177 255 0 0
0.035528 -0.137156 -0.031438 255 0 0
0.346979 -0.536019 0.664046 255 0 0
0.810305 -1.20506 1.09692 0 0 255
0.766297 -1.54348 1.80601 255 0 0
0.285508 -0.748385 1.4768 0 0 255
0.936771 -1.56753 1.71461 0 0 255
0.111384 -0.488674 0.391536 0 0 255
0.763211 -1.22549 1.61112 0 0 255
0.331592 -0.621671 0.74394 255 0 0
0.894034 -1.81142 2.30202 255 0 0
-0.312064 0.613083 -0.687207 0 0 255
0.527684 -0.389562 0.505252 255 0 0
0.57988 -1.3519 1.37389 255 0 0
0.768689 -1.57835 1.90314 255 0 0
0.402849 -0.604128 0.758942 255 0 0
-0.339369 0.629939 -0.748292 255 0 0
0.602227 -0.99992 1.22364 0 0 255
0.252012 -0.413687 0.641234 255 0 0
0.014563 -0.012697 0.159967 255 0 0
-0.53902 0.328854 -0.540276 255 0 0
1.45431 -2.54918 3.13292 0 0 255
0.157601 -0.507046 0.564385 0 0 255
-0.104066 0.065228 -0.150736 0 0 255
0.416665 -0.815546 0.990149 255 0 0
0.218592 -0.463559 0.476746 0 0 255
0.409187 -0.726523 1.05492 255 0 0
0.095882 0.028122 -0.113779 255 0 0
0.428427 -0.380911 0.552215 0 0 255
0.187897 -0.765821 0.904489 0 0 255
0.439544 0.302749 -0.223014 255 0 0
0.008679 -0.234423 0.127201 255 0 0
0.785209 -1.35922 1.80511 255 0 0
0.233535 -0.383471 0.48137 0 0 255
0.71829 -1.34733 1.63882 0 0 255
0.106928 -0.318509 0.38356 0 0 255
0.017865 -0.001672 -0.017273 255 0 0
0.283781 -1.45957 1.55545 0 0 255
0.249409 -0.466755 0.732579 255 0 0
-0.045972 0.139903 -0.173622 0 0 255
0.050096 -0.485086 0.512333 255 0 0
0.241383 -0.811684 0.981783 255 0 0
-0.081248 0.049919 -0.205503 255 0 0
-0.260969 0.774204 -0.953813 0 0 255
0.897671 -2.91569 3.45607 0 0 255
-0.116497 0.345066 -0.450929 255 0 0
0.318274 -0.659077 0.786651 0 0 255
0.311972 -1.06448 1.26849 255 0 0
0.317694 -1.2143 1.53127 0 0 255
-0.023095 -0.047455 0.06174 255 0 0
0.091424 -0.146946 0.218195 0 0 255
0.008123 -0.044403 0.063065 255 0 0
0.122452 -0.45758 0.497378 255 0 0
-0.159517 0.485177 -0.658315 255 0 0
0.266816 -1.00282 1.27076 0 0 255
-0.05527 -0.054019 -0.10757 255 0 0
0.29271 -0.747862 0.736799 255 0 0
-0.161899 0.526382 -0.64486 0 0 255
-8.5e-05 -0.298883 0.252342 255 0 0
-0.024431 -0.389424 0.261199 0 0 255
-0.1076 -0.066459 -0.062079 0 0 255
1.01808 -2.34095 2.71069 255 0 0
0.04615 -0.113041 0.129076 255 0 0
-0.028513 0.059611 -0.072592 0 0 255
0.70541 -1.13844 1.28744 0 0 255
0.122032 -0.285537 0.302645 255 0 0
0.038193 -0.082455 0.098699 0 0 255
-0.184581 0.767684 -0.843811 0 0 255
-0.152136 0.31566 -0.355571 255 0 0
0.013943 -0.026316 0.033435 255 0 0
-0.01769 0.032738 -0.037989 255 0 0
-0.478689 0.941638 -1.12515 0 0 255
0.638088 -1.25103 1.51126 0 0 255
0.150106 0.013279 0.178737 0 0 255
0.000186 -0.001519 0.002741 255 0 0
-0.182191 0.368307 -0.391048 0 0 255
-0.008933 -1.08792 0.907684 255 0 0
0.946948 -0.687111 1.07749 255 0 0
-0.000104 -0.082472 0.100196 0 0 255
0.329808 -0.089342 0.229934 255 0 0
-0.222576 -0.255651 0.263905 255 0 0
0.712694 -1.68953 2.20678 255 0 0
0.740291 -0.844835 1.61128 255 0 0
0.618132 -1.23403 1.92177 0 0 255
-0.017792 -0.209268 0.000204 0 0 255
0.499452 -1.20606 1.17686 0 0 255
0.609317 -0.88495 1.09698 255 0 0
0.05732 -0.03068 0.032585 0 0 255
0.021547 -0.153521 0.040008 255 0 0
0.491556 -0.579886 0.552674 0 0 255
0.110505 -0.339018 0.411891 255 0 0
0.119801 -0.218144 0.242367 0 0 255
-0.177088 0.227158 -0.28687 0 0 255
0.059534 -0.195204 0.116074 0 0 255
-0.113598 0.156361 -0.254167 255 0 0
-0.359966 0.65701 -0.879479 0 0 255
0.206491 -0.358628 0.504203 0 0 255
0.479462 -0.624297 0.701697 0 0 255
1.53009 -2.93235 3.72214 0 0 255
-0.552813 1.1322 -1.38027 0 0 255
-0.086478 0.33628 -0.361405 255 0 0
0.345862 -0.644108 0.750579 255 0 0
0.209238 -0.456619 0.541673 0 0 255
0.316275 -0.279477 0.376111 0 0 255
-0.260924 0.389583 -0.478474 255 0 0
-0.022274 0.149967 -0.197405 0 0 255
0.194337 -0.205284 0.278851 255 0 0
0.340081 -0.453878 0.603918 0 0 255
0.682611 -1.39287 1.58009 0 0 255
0.320647 -0.748217 0.842321 0 0 255
0.626474 -1.46321 1.5822 0 0 255
0.125444 -0.410071 0.419535 0 0 255
0.65695 -0.850337 1.06038 0 0 255
0.7845 -0.547601 0.835543 0 0 255
0.010203 -0.283742 0.133182 255 0 0
0.249757 -0.989411 1.28582 0 0 255
-0.061838 -0.490472 1.12292 255 0 0
0.295639 -0.695429 0.563548 255 0 0
0.107829 -0.412044 0.363263 255 0 0
-0.022011 -0.255791 0.435817 0 0 255
0.011191 -0.080533 0.030077 255 0 0
0.229528 -0.817883 0.956163 0 0 255
-0.047275 0.234106 -0.144188 255 0 0
0.187521 -0.971721 0.964313 0 0 255
0.062767 -0.027708 0.156166 255 0 0
0.232325 -0.463485 0.580691 0 0 255
0.341258 -1.01363 1.04243 0 0 255
-0.123788 0.600462 -0.760249 255 0 0
-0.017127 -0.043189 -0.026337 255 0 0
-0.069823 -0.079915 0.415076 0 0 255
0.115902 -0.60686 0.789977 255 0 0
0.219073 -1.02716 1.30058 0 0 255
0.083367 -0.90783 1.00154 0 0 255
-0.138592 0.43698 -0.145172 0 0 255
-0.061982 0.269892 -0.554986 255 0 0
0.318406 -0.507866 0.576835 0 0 255
-0.057124 0.213466 -0.254396 255 0 0
0.97238 -5.18022 6.56134 255 0 0
-0.09525 -0.110714 -0.054334 255 0 0
-0.004942 -0.592962 0.589348 0 0 255
-0.167659 0.294938 -0.405572 0 0 255
0.181614 -0.889999 1.20703 255 0 0
-0.084324 0.458585 -0.579745 255 0 0
-0.08315 0.360279 -0.455422 0 0 255
0.01467 0.03138 -0.049368 255 0 0
0.28475 -0.612171 0.895519 255 0 0
0.030077 0.02613 -0.046584 255 0 0
0.109166 -0.526884 0.697373 0 0 255
0.221975 -1.23681 1.83257 255 0 0
-0.079457 -0.668278 0.803311 255 0 0
0.182239 0.601806 -0.570297 0 0 255
0.19808 -1.52544 1.93726 0 0 255
0.700633 -2.70887 3.58078 255 0 0
-0.019235 -0.96522 1.15161 255 0 0
0.498368 -1.96064 2.59011 0 0 255
0.355126 -1.77229 2.47856 0 0 255
0.236205 -1.26696 1.88026 0 0 255
-0.055781 0.524543 -0.664676 0 0 255
-0.033044 0.045091 0.011945 255 0 0
0.465391 -2.21209 2.92796 0 0 255
0.100515 -0.237445 0.254875 255 0 0
0.037883 -0.212917 0.263751 0 0 255
0.007524 -0.146273 0.185375 255 0 0
-0.254706 1.00126 -1.28839 0 0 255
0.520668 -2.16144 2.89822 255 0 0
0.185177 -0.54505 0.753852 0 0 255
0.2421 -0.691621 0.98306 0 0 255
0.091816 -0.508497 0.625798 255 0 0
0.476425 -1.86879 2.41405 0 0 255
0.556382 -2.18445 2.80718 0 0 255
0.205005 -1.33925 1.74536 0 0 255
-0.044905 -1.12045 1.14285 255 0 0
0.059962 -1.03485 1.53374 255 0 0
0.074686 -0.669593 0.902558 0 0 255
0.12204 0.043557 -0.078375 0 0 255
0.364454 -1.09502 1.34711 255 0 0
1.03438 -2.48662 3.28599 0 0 255
-0.123132 0.497012 -0.58824 0 0 255
-0.052517 0.183931 -0.119821 0 0 255
-0.036493 -0.061829 0.126231 0 0 255
-0.043335 0.047515 0.035449 0 0 255
-0.227535 1.03155 -1.33615 255 0 0
0.493647 -1.90894 2.64211 0 0 255
0.227883 -1.46933 1.82291 255 0 0
-0.078476 0.145011 -0.551108 255 0 0
0.06137 -0.341449 0.454614 0 0 255
0.129504 -0.966037 1.42672 255 0 0
-0.041413 0.13162 -0.170112 0 0 255
0.163436 -0.253164 0.294078 0 0 255
0.196809 0.116323 -0.05246 255 0 0
-0.237367 -0.120302 0.082266 255 0 0
0.139923 -0.872735 1.18037 0 0 255
-0.163687 0.204966 -0.371712 255 0 0
-0.200999 -0.323888 0.051015 0 0 255
0.230149 -0.383493 0.557859 0 0 255
-0.151473 0.362909 -0.427639 0 0 255
0.28207 -0.536529 0.684582 255 0 0
0.650927 -1.14606 1.45651 255 0 0
0.398156 -0.031092 0.274626 0 0 255
0.06602 -0.052467 0.197125 0 0 255
1.44837 -2.54164 3.19555 0 0 255
-0.507927 0.967083 -1.20016 0 0 255
0.178481 -0.619658 0.711946 0 0 255
-0.099697 0.156475 -0.199124 255 0 0
0.144796 -0.265105 0.335792 0 0 255
-0.088675 0.162081 -0.204913 0 0 255
0.110284 -0.097472 0.461625 0 0 255
0.307317 -0.541632 0.660625 255 0 0
0.344781 -0.349479 0.507942 0 0 255
1.08596 -2.04299 2.55241 255 0 0
0.164428 -0.27094 0.494811 0 0 255
0.215393 -1.1086 1.37145 0 0 255
0.138058 -0.283208 0.341059 255 0 0
0.643388 -1.35768 1.45663 255 0 0
0.14169 -0.310922 0.330742 0 0 255
1.19344 -2.86961 3.13674 255 0 0
1.35372 -2.83041 3.23926 255 0 0
-0.044407 0.111941 -0.147173 0 0 255
-0.148729 0.27399 -0.210006 0 0 255
-0.170802 0.339188 -0.352403 0 0 255
0.007265 -0.553761 0.360291 255 0 0
0.605714 -1.16482 1.50202 0 0 255
-0.283937 0.50813 -0.567472 255 0 0
-0.022422 -0.128367 0.128072 255 0 0
-0.246766 0.47663 -0.513789 255 0 0
0.420047 -0.78625 1.25033 255 0 0
0.360428 -0.399165 0.448971 255 0 0
0.032476 -0.052766 0.056053 255 0 0
0.051825 -0.288189 0.124349 0 0 255
-0.013468 -0.044644 0.037328 0 0 255
0.0408 -0.415923 0.369429 0 0 255
0.650292 -1.71257 2.02445 0 0 255
0.301736 -0.706911 0.882166 255 0 0
-0.073728 0.413327 -0.288125 0 0 255
-0.235126 0.409445 -0.494993 0 0 255
0.015609 -0.060679 0.142949 0 0 255
0.452086 -1.33716 1.45112 0 0 255
0.041168 -0.124027 0.13986 255 0 0
-0.080167 0.147607 -0.15534 0 0 255
0.144093 -0.377484 0.385629 255 0 0
0.174927 -0.310593 0.510323 0 0 255
0.04831 -0.355845 0.277697 0 0 255
1.31874 -3.33885 3.70269 0 0 255
0.925412 -2.52908 2.74522 0 0 255
0.339544 -0.964919 1.03771 255 0 0
-0.128777 0.354167 -0.417579 255 0 0
0.054028 -0.17369 0.232705 0 0 255
-0.298407 0.880165 -0.95254 0 0 255
0.234975 -1.45444 1.46108 255 0 0
0.463783 -0.922174 1.27381 255 0 0
0.374783 -0.396659 0.704832 255 0 0
0.15127 0.15621 0.065326 0 0 255
0.688392 -1.74598 1.88529 0 0 255
0.033051 -0.702397 0.741414 255 0 0
0.009586 -0.21099 0.372019 255 0 0
0.18419 -1.42295 1.57881 0 0 255
0.505202 -0.53278 0.74129 255 0 0
-0.188151 0.326866 -0.336451 0 0 255
1.29284 -3.10986 3.59785 0 0 255
0.276908 -0.556366 0.461802 0 0 255
-0.027171 -0.095091 0.090571 0 0 255
0.327892 -0.288939 0.638367 0 0 255
0.189702 -0.202251 0.319681 255 0 0
0.07677 -0.130753 0.166163 0 0 255
0.466155 -1.24472 1.44653 255 0 0
0.080412 -0.095925 0.130907 255 0 0
-0.294987 0.30796 -0.660229 0 0 255
0.012096 0.162629 0.078667 0 0 255
-0.064625 0.17474 -0.169795 0 0 255
0.195327 -0.347793 0.543021 255 0 0
0.05109 -0.118408 0.13691 0 0 255
-0.086377 0.19653 -0.230783 255 0 0
0.140525 -0.097439 0.084217 255 0 0
0.165858 -0.362413 0.362674 0 0 255
0.018226 0.021587 -0.012878 255 0 0
0.516383 -1.4495 1.748 255 0 0
0.039587 -0.141961 0.147194 255 0 0
-0.088454 0.197535 -0.356084 0 0 255
0.101052 -0.126867 0.230597 255 0 0
-0.001606 -0.061819 0.038274 255 0 0
0.986046 -2.14672 2.62347 0 0 255
0.191655 -0.286836 0.42344 0 0 255
-0.211659 0.351759 -0.456118 255 0 0
0.293555 -0.518867 0.60466 0 0 255
-0.281344 0.573555 -0.666769 0 0 255
0.383016 -0.203291 0.017813 255 0 0
-0.412343 0.786946 -0.756542 0 0 255
0.039743 -0.081998 0.091684 255 0 0
0.185804 -0.310029 0.40964 0 0 255
-0.013077 0.047526 -0.043096 255 0 0
0.586541 -0.778057 0.824019 0 0 255
0.537099 -0.93139 1.13388 0 0 255
0.06087 -0.231783 0.124282 255 0 0
0.05336 -0.167136 0.323271 255 0 0
0.714863 -1.31429 1.57624 0 0 255
0.790592 -1.72212 1.91369 255 0 0
0.13252 -0.295925 0.323068 0 0 255
-0.441982 0.94949 -1.09872 255 0 0
-0.028173 0.123668 -0.234079 0 0 255
1.25539 -2.44623 2.72923 255 0 0
0.171376 -0.441285 0.701228 0 0 255
0.263352 -0.104415 0.088681 0 0 255
0.07589 -0.4972 0.239975 0 0 255
0.00874 0.322945 -0.311183 255 0 0
0.075655 -0.078156 0.098309 255 0 0
-0.112071 0.195916 -0.223973 255 0 0
-0.49686 1.15431 -1.2823 0 0 255
0.089342 -0.627866 0.490051 0 0 255
-0.006681 0.375259 -0.383272 0 0 255
0.518735 -0.836028 0.784806 255 0 0
0.411372 -1.09759 1.27452 0 0 255
1.16625 -3.08378 3.36581 0 0 255
0.336973 -0.542617 0.46606 255 0 0
0.069881 -0.292392 0.496301 255 0 0
1.42162 -3.2442 3.62433 255 0 0
0.007163 -0.100857 0.06895 0 0 255
-0.045265 0.077963 -0.101974 0 0 255
-0.460875 1.11178 -1.23859 0 0 255
-0.065399 0.144637 -0.173049 255 0 0
-0.178772 0.320634 -0.32035 0 0 255
0.115207 -0.281647 0.304289 0 0 255
-0.060748 0.151658 -0.15099 255 0 0
0.026403 -0.095476 0.105489 0 0 255
1.37424 -2.97097 3.56042 255 0 0
0.13127 0.205319 -0.077604 255 0 0
0.004655 -0.054446 0.112222 255 0 0
-0.381453 0.950955 -1.09886 0 0 255
0.385336 -0.835559 0.962351 0 0 255
0.287219 -0.698989 0.898913 0 0 255
1.32935 -3.02369 3.32251 0 0 255
-0.226825 0.403857 -0.55199 255 0 0
0.62676 -1.44219 1.56328 0 0 255
-0.149431 0.07947 -0.159113 255 0 0
1.31385 -3.20739 3.45643 255 0 0
0.491514 -1.2575 1.13039 0 0 255
0.084954 -0.211237 0.223388 0 0 255
-0.050624 0.119012 -0.133235 0 0 255
0.100859 -0.174227 0.194888 255 0 0
-0.048658 -0.269375 0.120019 0 0 255
0.011729 0.328682 -0.536896 0 0 255
-0.030327 -0.046686 0.311845 0 0 255
0.008869 0.175679 -0.11252 255 0 0
0.189057 -0.734716 0.870342 0 0 255
0.328974 -0.866964 0.836297 255 0 0
-0.256378 0.575702 -0.648753 0 0 255
-0.443998 1.07355 -1.20051 255 0 0
0.08056 -0.224596 0.255138 255 0 0
0.465547 -1.02805 1.07219 0 0 255
0.119996 -0.35328 0.40983 255 0 0
0.08693 -0.068126 0.115877 255 0 0
-0.027823 0.038778 -0.168502 255 0 0
0.208224 -0.50505 0.634667 255 0 0
-0.079368 0.166464 -0.205203 255 0 0
0.044906 -0.057529 -0.08882 0 0 255
0.083966 -0.181238 0.261662 0 0 255
0.09512 -0.225706 0.25714 0 0 255
-0.256652 0.403824 -0.357664 0 0 255
0.106529 -0.273829 0.220716 0 0 255
0.097607 -0.234985 0.249232 255 0 0
0.622204 -1.37238 1.45598 255 0 0
0.043623 -0.284945 0.342883 0 0 255
0.844487 -2.13328 2.13266 0 0 255
-0.295961 0.558967 -0.562187 0 0 255
0.064556 -0.104743 0.127911 0 0 255
0.154657 -0.268991 0.389514 255 0 0
-0.046125 0.164785 -0.22203 0 0 255
-0.047091 0.086863 -0.124997 0 0 255
1.68841 -3.76866 3.94331 255 0 0
0.070183 -0.31463 -0.035855 255 0 0
0.481031 -1.22007 1.45543 0 0 255
0.325161 -0.920722 0.993539 255 0 0
0.476919 -1.06927 1.29214 255 0 0
0.80144 -2.2262 2.10185 0 0 255
0.634579 -2.19731 2.85135 0 0 255
-0.158696 0.363218 -0.41822 255 0 0
-0.059862 0.172005 -0.186117 0 0 255
-0.056279 0.314916 -0.085659 255 0 0
-0.071744 0.17866 -0.117409 0 0 255
0.087874 -0.159507 0.172867 255 0 0
0.11124 -0.173125 0.253264 255 0 0
-0.349656 0.575567 -0.613355 255 0 0
1.16233 -2.43806 2.55161 255 0 0
0.436379 -1.14826 1.44018 0 0 255
-0.5856 1.20038 -1.25833 255 0 0
0.386247 -1.0798 0.973355 0 0 255
-0.099113 0.14458 -0.094852 255 0 0
-0.264113 0.547371 -0.678859 255 0 0
-0.08015 0.114593 -0.167959 255 0 0
0.470595 -0.703496 0.748488 0 0 255
0.183579 -0.583969 0.631139 0 0 255
-0.277233 0.562139 -0.556016 0 0 255
0.358138 -0.767006 0.800955 255 0 0
0.335959 -0.614853 0.606867 255 0 0
-0.074496 0.135364 -0.231325 255 0 0
0.326166 -0.708257 0.71065 0 0 255
-0.251006 0.525189 -0.671034 0 0 255
-0.092508 -0.050954 -0.126602 0 0 255
-0.200116 0.585637 -0.426171 0 0 255
0.11029 -0.149414 0.330672 0 0 255
-0.372192 0.27976 -0.445733 0 0 255
-0.287492 0.494881 -0.475747 255 0 0
0.077798 -0.077669 0.056243 255 0 0
0.606516 -1.29631 1.30811 0 0 255
-0.444379 0.95958 -0.967907 255 0 0
0.471449 -1.04056 1.09674 255 0 0
1.1065 -2.29668 2.28838 0 0 255
1.78961 -3.54637 3.51609 255 0 0
-0.368316 0.786437 -0.722748 0 0 255
-0.360273 0.950852 -0.929178 255 0 0
-0.059872 -0.322589 0.562293 255 0 0
0.28991 -0.392622 -0.012001 255 0 0
-0.142362 0.396567 -0.197224 0 0 255
-0.014152 0.361202 0.106237 255 0 0
0.758974 -1.6232 1.68037 0 0 255
1.23605 -2.54798 2.53525 255 0 0
0.241238 -0.019414 0.097297 255 0 0
-0.359469 0.346391 0.127838 255 0 0
0.346047 -0.330071 -0.235751 255 0 0
0.491593 -1.28957 1.33972 255 0 0
-0.067523 0.007308 -0.077317 255 0 0
0.035011 0.216175 -0.300188 255 0 0
-0.090839 0.000181 -0.281532 255 0 0
-0.040047 0.089798 -0.134285 255 0 0
-0.19804 0.641442 -0.686719 255 0 0
0.100775 -0.250153 0.292845 0 0 255
-0.227816 0.003094 0.010616 255 0 0
1.2285 -2.7399 2.93178 0 0 255
0.097346 -0.268934 0.261025 0 0 255
-0.082713 -0.060067 0.052685 255 0 0
0.417501 -1.35374 1.41678 0 0 255
-0.089864 0.16754 -0.208157 255 0 0
0.262975 -1.10223 1.30937 0 0 255
-0.072933 0.042523 -0.104992 0 0 255
0.150692 -0.063607 0.150085 0 0 255
0.518618 -1.06014 1.27903 255 0 0
0.117899 -0.344545 0.181657 0 0 255
-0.082953 0.230318 -0.331568 0 0 255
0.317827 -0.161082 0.503864 255 0 0
0.108219 -0.347989 0.291958 255 0 0
-0.117558 0.30797 -0.36035 255 0 0
0.064632 -0.171114 0.192814 0 0 255
0.016453 -0.049315 0.055785 255 0 0
0.023774 -0.059018 0.070759 255 0 0
0.022 -0.072641 0.085553 255 0 0
-0.102924 0.244203 -0.262214 0 0 255
0.062562 -0.17632 0.121742 255 0 0
-0.093873 0.245646 -0.233426 0 0 255
-0.026955 0.066464 -0.130164 0 0 255
1.13476 -2.24209 2.5819 255 0 0
0.419963 -1.15446 1.25846 255 0 0
0.652699 -1.78643 1.93309 0 0 255
-0.303159 0.836204 -0.936101 0 0 255
0.088986 -0.314483 0.325095 0 0 255
0.048982 -0.203206 0.190713 0 0 255
-0.227834 0.532962 -0.612605 0 0 255
-0.078146 -0.127432 -0.192102 0 0 255
0.108699 -0.398927 0.272786 255 0 0
0.310554 -0.897931 0.967761 255 0 0
-0.108666 0.310285 -0.34359 255 0 0
-0.029087 -0.097176 -0.083894 255 0 0
0.00623 -0.182978 0.037182 0 0 255
0.186174 -0.709855 0.600358 0 0 255
-0.185722 0.445492 -0.526437 0 0 255
0.258303 -0.609239 0.666487 0 0 255
0.357066 -0.897913 1.03424 255 0 0
-0.014793 -0.01075 -0.008668 255 0 0
-0.016897 -0.184848 0.516579 255 0 0
0.03047 0.19294 -0.497961 255 0 0
0.263025 -0.077288 0.177447 0 0 255
0.071277 0.199775 -0.157496 255 0 0
0.401139 -0.896297 0.961632 0 0 255
-0.286621 0.528992 -0.600332 0 0 255
-0.145324 0.013315 -0.260984 255 0 0
1.06829 -2.96966 3.12323 0 0 255
0.238391 -0.620144 0.674167 255 0 0
-0.248788 0.510473 -0.562436 0 0 255
0.479479 -1.27271 1.41017 0 0 255
-0.101677 0.438434 -0.21042 0 0 255
0.004782 -0.265667 0.044466 0 0 255
0.278385 -1.32658 1.46785 255 0 0
0.617789 -1.76045 1.88881 255 0 0
0.686635 -1.58774 1.96168 255 0 0
-0.159969 0.055605 -0.08468 0 0 255
1.15593 -2.61324 2.74436 0 0 255
0.171858 -0.512736 0.539437 0 0 255
-0.102945 0.363508 -0.390744 255 0 0
2.31139 -6.27626 6.04206 0 0 255
0.014567 -0.14081 0.130752 255 0 0
0.414882 -1.17599 1.20901 255 0 0
0.045621 -0.065697 0.098241 255 0 0
-0.126464 0.259048 0.055916 0 0 255
0.182583 -0.420604 0.033752 0 0 255
0.190725 0.010121 -0.360373 255 0 0
0.051961 -0.136183 0.145682 255 0 0
-0.174307 0.423178 -0.424538 0 0 255
0.014488 -0.121602 0.198998 0 0 255
0.118057 -0.404491 0.454382 0 0 255
0.336449 -1.01472 1.00597 0 0 255
-0.114756 0.336857 -0.314197 0 0 255
-0.182656 0.503617 -0.548673 0 0 255
0.004423 0.035053 -0.021862 0 0 255
-0.178792 0.582979 -0.625772 255 0 0
-0.03518 0.171369 -0.063428 255 0 0
0.504302 -1.5986 1.65802 255 0 0
0.032859 -0.01 -0.122768 255 0 0
0.03332 -0.083776 0.05001 255 0 0
-0.122528 0.303183 -0.171412 0 0 255
-0.072773 -0.436239 0.256217 255 0 0
-0.127609 0.222222 -0.378416 255 0 0
0.314324 -1.20158 1.42744 0 0 255
-0.144936 0.556561 -0.558348 255 0 0
0.094635 -0.378749 0.334144 255 0 0
0.037496 -0.288808 0.293768 0 0 255
0.003025 -0.227374 0.232623 255 0 0
0.280676 -0.852449 0.836088 0 0 255
1.03128 -3.07802 3.07962 0 0 255
0.595662 -1.40131 1.86081 0 0 255
0.747372 -1.08759 1.4858 0 0 255
0.514485 -1.06902 1.21191 0 0 255
0.198529 -0.427599 0.508681 255 0 0
-0.00398 0.008492 -0.008264 255 0 0
0.194839 -0.477129 0.545962 0 0 255
0.498268 -0.962667 1.06974 0 0 255
0.162833 -0.376258 0.418496 255 0 0
0.871592 -1.90004 2.1728 0 0 255
0.060025 -0.075525 0.088453 255 0 0
0.012131 -0.161214 0.148814 0 0 255
0.142885 -0.406213 0.372409 0 0 255
-0.120817 -0.25576 -0.173701 255 0 0
0.041937 0.243752 0.21819 255 0 0
-0.16354 0.182666 -0.113768 255 0 0
-0.513574 1.10498 -1.16618 0 0 255
0.688306 -0.944799 1.26101 255 0 0
-0.114661 0.298709 -0.279396 0 0 255
-0.040219 -0.113328 0.122333 255 0 0
0.028701 -0.173898 0.195897 255 0 0
0.165091 -0.342973 0.456536 255 0 0
-0.073327 0.138751 -0.135289 0 0 255
0.016333 -0.032137 0.036644 255 0 0
-0.0554 0.251715 -0.338773 255 0 0
0.580547 -2.73228 3.03491 0 0 255
0.718345 -1.78547 2.01589 0 0 255
-0.139879 0.473311 -0.350133 0 0 255
-0.267721 0.716961 -0.739189 255 0 0
0.554208 -1.56733 1.5063 255 0 0
0.149949 -0.369153 0.367797 0 0 255
0.092034 0.003365 0.101304 255 0 0
0.789783 -2.13988 2.30398 255 0 0
0.791065 -2.07956 1.99287 0 0 255
0.352784 -0.610316 0.868328 0 0 255
0.395652 -1.07697 1.05874 0 0 255
-0.15264 0.527197 -0.464307 255 0 0
0.124084 -0.350603 0.327669 255 0 0
-0.043591 -0.078192 0.041716 0 0 255
0.172882 -0.421913 0.477302 255 0 0
-0.377808 0.849623 -0.857824 255 0 0
0.199786 -0.42909 0.454767 0 0 255
1.29403 -2.20955 2.1392 255 0 0
-0.116984 0.391642 -0.449625 0 0 255
0.221377 -0.470025 0.877185 255 0 0
0.879548 -1.11907 1.42339 255 0 0
0.671999 -1.60134 1.77088 0 0 255
0.071332 -0.582812 0.691191 255 0 0
0.073003 0.031958 0.073594 0 0 255
-0.241427 0.833813 -0.959193 255 0 0
0.315324 -0.519309 0.526998 0 0 255
0.642907 -1.15295 1.50181 0 0 255
0.352509 -0.810926 0.895386 255 0 0
0.266299 -0.596445 0.625507 255 0 0
0.527944 -0.825883 0.955968 255 0 0
0.055368 -0.128271 0.152796 0 0 255
0.183685 0.562706 -0.002486 255 0 0
-0.197202 -0.40774 -0.043705 255 0 0
0.02321 -0.044643 0.035406 0 0 255
0.085586 -0.479297 0.186016 255 0 0
-0.072069 0.324332 -0.139825 255 0 0
-0.195701 0.439468 -0.428026 0 0 255
-0.060634 0.246523 0.119215 0 0 255
0.120892 -0.380947 -0.045215 0 0 255
-0.182461 0.189345 -0.137165 255 0 0
0.409679 -0.805144 0.93867 0 0 255
-0.004762 -0.138864 0.204668 255 0 0
-0.204113 0.18489 -0.100834 255 0 0
-0.085752 0.149935 -0.166432 255 0 0
-0.088543 0.349445 -0.432735 0 0 255
0.159356 -0.260756 0.206642 255 0 0
-0.065749 -0.123908 0.261204 0 0 255
0.258528 -0.253812 0.468485 255 0 0
0.555195 -1.06947 1.14918 255 0 0
0.002375 -0.067174 0.080638 255 0 0
0.595098 -1.21048 1.34926 255 0 0
0.307494 -0.724599 0.848931 255 0 0
0.51848 -1.16863 1.26544 255 0 0
0.444305 -1.09263 1.2199 0 0 255
0.30572 -0.012178 0.167928 255 0 0
0.324404 -0.328489 0.483771 0 0 255
1.00047 -2.21949 2.48592 0 0 255
-0.261989 0.526504 -0.589507 0 0 255
0.726949 -0.971597 1.19519 255 0 0
-0.250605 0.372194 -0.429959 0 0 255
0.155506 -0.436007 0.44308 255 0 0
1.02043 -2.31239 2.56881 0 0 255
-0.120434 0.232222 -0.250088 255 0 0
-0.037248 -0.043563 0.02321 0 0 255
-0.022016 -0.082815 0.140444 0 0 255
-0.269259 0.592692 -0.634918 255 0 0
1.27748 -2.90878 3.2391 255 0 0
0.589339 -0.717327 0.879857 255 0 0
0.051458 -0.669849 0.683505 0 0 255
0.014883 -0.03432 0.07668 255 0 0
0.183738 -0.38166 0.423952 0 0 255
0.630518 -2.01997 2.19152 255 0 0
-0.014878 0.031988 -0.021816 255 0 0
0.069741 -0.145043 0.151687 0 0 255
0.191003 -0.410385 0.451187 255 0 0
-0.092627 0.211028 -0.248584 0 0 255
-0.557984 0.658685 -0.839957 255 0 0
0.204799 -0.391602 0.542896 0 0 255
-0.135266 0.248094 -0.337988 0 0 255
0.619751 -0.583348 0.874995 255 0 0
-0.061605 0.250044 -0.234794 255 0 0
1.42244 -2.93334 3.35986 255 0 0
0.151754 -0.379735 0.42696 0 0 255
-0.188114 0.487168 -0.492898 0 0 255
0.603238 -1.43527 1.59897 0 0 255
0.605251 -0.641991 0.815336 255 0 0
0.180569 -0.424209 0.475161 255 0 0
0.430477 -1.01439 1.21087 0 0 255
0.018413 -0.041118 0.170092 0 0 255
1.7872 -3.7863 4.04199 255 0 0
-0.070942 -0.177333 0.066401 0 0 255
0.734505 -1.70224 1.65735 255 0 0
0.035984 -0.121805 0.032069 0 0 255
-0.60125 1.19922 -1.34107 255 0 0
-0.565874 1.23966 -1.13523 255 0 0
0.530919 -1.40596 1.44793 255 0 0
0.420877 -1.16618 1.09287 255 0 0
2.35134 -5.16322 5.58317 0 0 255
0.098085 -0.204029 0.234191 0 0 255
-0.271982 0.550548 -0.711351 255 0 0
0.125905 -0.297929 0.24093 255 0 0
-0.524311 1.12874 -1.16506 255 0 0
0.648954 -1.37884 1.6083 255 0 0
0.403543 -0.945359 0.85618 255 0 0
0.082413 -0.188857 0.182219 0 0 255
0.127185 -0.306392 0.316581 0 0 255
0.187465 -0.206741 0.143401 255 0 0
0.325816 -0.759601 0.821616 0 0 255
-0.373434 0.774855 -0.848481 255 0 0
0.593725 -1.3872 1.43166 255 0 0
-0.1243 0.267743 -0.263992 0 0 255
0.357664 -0.730328 0.788325 255 0 0
-0.379682 0.383017 -0.472108 255 0 0
0.055878 -0.13236 0.159615 0 0 255
-0.260844 0.447765 -0.52147 255 0 0
-0.09715 0.142243 -0.129983 0 0 255
0.172918 -0.300553 0.334446 0 0 255
0.111893 -0.415911 0.442118 0 0 255
-0.221503 -0.446195 0.030667 255 0 0
0.197163 0.360567 -0.314471 255 0 0
-0.072414 0.148685 -0.161052 0 0 255
0.249562 -0.344436 0.232007 0 0 255
0.443131 -0.905194 0.947181 255 0 0
0.468987 -0.891126 0.841554 255 0 0
0.241374 -0.368759 0.491228 0 0 255
0.218132 -0.318744 0.583249 0 0 255
-0.417374 0.837653 -0.734921 255 0 0
-0.135488 0.538287 -0.570481 0 0 255
0.629946 -1.38278 1.40972 0 0 255
1.39698 -3.00335 3.29535 255 0 0
-0.042037 -0.136583 -0.010394 255 0 0
0.061795 -0.128077 0.230383 255 0 0
0.117885 -0.214904 0.092877 255 0 0
0.259364 -0.721267 0.702362 0 0 255
0.01869 -0.082797 -0.031642 0 0 255
-0.191361 0.451811 -0.37374 0 0 255
0.118106 0.226067 -0.038869 255 0 0
0.050836 0.090289 0.183636 255 0 0
-0.303479 0.423441 -0.336037 255 0 0
1.15898 -2.36283 2.26523 255 0 0
-0.066591 0.065407 -0.001154 255 0 0
-0.033776 -0.076583 0.030639 0 0 255
0.954186 -2.43308 2.55227 255 0 0
1.09415 -2.53538 2.42977 0 0 255
0.555259 -1.28992 1.40198 0 0 255
0.92332 -2.00286 2.25655 255 0 0
-0.194717 0.467205 -0.537973 0 0 255
0.277967 -1.06509 1.11724 255 0 0
0.15195 -0.377308 0.418952 0 0 255
0.060762 -0.140889 0.144969 255 0 0
0.161429 -0.633704 0.590965 0 0 255
-0.0652 0.053903 -0.134401 0 0 255
0.136369 -0.202212 0.139591 255 0 0
0.060956 -0.142538 0.078255 0 0 255
0.026495 -0.144571 0.110821 0 0 255
-0.153329 0.23797 -0.330188 255 0 0
-0.082499 0.182548 -0.191186 0 0 255
0.168699 -0.400457 0.371341 0 0 255
0.536202 -1.14886 0.869237 0 0 255
0.449069 -0.654002 0.957589 0 0 255
0.152849 -0.329984 0.345018 255 0 0
-0.128293 0.495841 -0.413975 255 0 0
0.226781 -0.114438 0.329346 0 0 255
2.44128 -5.4884 5.88625 255 0 0
0.237633 -0.643848 0.521665 0 0 255
-0.272468 0.520093 -0.551198 255 0 0
0.630078 -0.87048 1.14575 0 0 255
0.04848 -0.12206 0.121725 0 0 255
-0.00979 0.102523 -0.062413 0 0 255
-0.082555 0.180049 -0.19965 255 0 0
0.539624 -1.39239 1.31775 255 0 0
1.21353 -3.34936 3.46221 255 0 0
0.266722 -1.08009 0.844689 255 0 0
0.142682 -0.424317 0.411289 0 0 255
1.49427 -3.08099 3.46637 0 0 255
-0.422596 0.581102 -0.619743 0 0 255
0.661494 -1.78782 1.86357 0 0 255
0.039816 -0.742304 0.705185 0 0 255
0.010474 0.055113 -0.011653 255 0 0
0.159479 -0.368534 0.376663 0 0 255
-0.228566 0.190585 -0.404693 0 0 255
-0.185959 0.44171 -0.523407 0 0 255
0.11264 -0.294529 0.397141 0 0 255
0.185098 -0.29837 0.33223 255 0 0
-0.021826 0.01386 -0.101362 255 0 0
0.190841 -0.416087 0.458425 255 0 0
0.268828 -0.657855 0.744532 0 0 255
-0.178046 0.379335 -0.42602 255 0 0
-0.114418 0.265058 -0.289172 0 0 255
-0.012318 -0.164895 0.225765 0 0 255
-0.073992 0.169307 -0.192408 255 0 0
-0.010008 0.17902 -0.261014 0 0 255
-0.058445 0.164655 -0.203493 0 0 255
0.0116 -0.029009 0.023102 0 0 255
1.2752 -3.0202 3.338 255 0 0
0.483116 -1.24707 1.43763 255 0 0
1.13587 -2.66244 2.97384 0 0 255
0.159008 -0.331995 0.506876 255 0 0
-0.115902 0.36465 -0.290602 255 0 0
-0.491341 1.52941 -1.64455 0 0 255
0.676539 -1.85814 2.0573 0 0 255
-0.276462 0.717113 -0.806408 255 0 0
0.227455 -0.579556 0.56451 255 0 0
0.036488 -0.19023 0.383566 0 0 255
0.055275 -0.103319 0.098529 255 0 0
0.087343 -0.315756 0.390374 0 0 255
-0.063786 0.00486 0.056135 255 0 0
0.055685 -0.075468 0.051724 255 0 0
0.362138 -1.2103 1.26643 0 0 255
-0.191384 0.330783 -0.266846 255 0 0
0.058424 -0.151181 0.200412 0 0 255
0.01331 -0.018753 0.074371 0 0 255
0.247474 -0.519834 0.585635 255 0 0
-0.113101 0.258397 -0.274355 255 0 0
-0.299679 0.750045 -0.844211 0 0 255
-0.165066 0.436419 -0.442818 0 0 255
-0.295732 0.729067 -0.747627 0 0 255
0.164831 -0.441574 0.43451 0 0 255
0.293141 -0.948355 0.988094 255 0 0
0.205523 -0.207393 0.213294 255 0 0
-0.021514 -0.016107 0.026035 255 0 0
0.030154 -0.0648 0.030297 0 0 255
0.033817 -0.127545 0.057725 0 0 255
0.604697 -1.77252 1.75992 255 0 0
0.702652 -1.67558 1.80844 0 0 255
-0.008041 0.524334 -0.286849 0 0 255
0.649965 -1.15498 1.61021 255 0 0
0.052043 -0.082233 0.007833 0 0 255
-0.143937 0.469868 -0.381872 0 0 255
0.330269 -0.776182 0.903052 255 0 0
-0.031139 -0.011933 -0.009977 0 0 255
0.592652 -1.34975 1.48645 255 0 0
-0.064645 0.104643 -0.162837 255 0 0
0.027649 -0.149846 0.109339 0 0 255
-0.09755 0.006991 -0.194809 0 0 255
0.018884 0.329173 -0.294366 0 0 255
-0.24664 0.76503 -0.860179 255 0 0
0.332262 -0.405813 0.410062 255 0 0
0.860303 -2.60659 2.81547 255 0 0
0.350123 -0.956693 1.41263 0 0 255
-0.20063 0.483812 -0.571848 255 0 0
0.933669 -1.6051 1.74152 0 0 255
0.167789 -0.437013 0.454764 255 0 0
0.453715 -1.12007 1.20362 255 0 0
0.497612 -1.26603 1.42673 0 0 255
0.504838 -0.480336 0.777081 255 0 0
1.74849 -5.01088 5.40207 0 0 255
-0.122294 0.306019 -0.360933 255 0 0
0.062509 -0.238953 0.239148 255 0 0
0.697941 -1.80115 1.9042 0 0 255
0.642585 -1.33169 1.5092 255 0 0
0.004018 -0.030641 0.016578 0 0 255
-0.145588 0.371703 -0.358042 255 0 0
0.667633 -1.6514 1.87095 0 0 255
-0.764476 1.65367 -1.85868 255 0 0
-0.352796 1.17711 -1.24658 255 0 0
0.039698 -0.063838 0.071816 0 0 255
-0.041422 0.178282 -0.255699 255 0 0
-0.303802 0.750162 -0.829385 255 0 0
-0.31036 0.873087 -0.96901 255 0 0
0.243958 -0.653081 0.717505 255 0 0
-0.09714 0.172831 -0.220209 255 0 0
1.17153 -3.3098 3.64886 0 0 255
-0.010001 -0.074975 -0.077042 0 0 255
0.067844 -0.074755 0.174055 0 0 255
0.194138 -0.558935 0.692741 255 0 0
0.329225 -0.901172 1.13333 255 0 0
0.252922 -0.63938 0.725792 0 0 255
-0.161851 0.323189 -0.343474 255 0 0
0.234917 -0.675913 0.642203 0 0 255
0.075359 -0.213131 0.211734 0 0 255
-0.386316 0.987704 -1.15069 0 0 255
2.52821 -6.06013 6.73659 0 0 255
0.421878 -1.10069 1.18805 255 0 0
-0.106996 0.240879 -0.281408 255 0 0
0.332386 -0.798637 0.98119 255 0 0
-0.254091 0.73475 -0.556535 255 0 0
0.379146 -0.936735 1.0398 0 0 255
-0.398778 1.02893 -1.0925 255 0 0
-0.377994 0.67296 -0.912546 255 0 0
0.014906 -0.094991 0.111064 0 0 255
0.457962 -1.56672 1.52081 255 0 0
-0.075837 -0.318486 -0.003968 0 0 255
-0.071159 0.116193 -0.115085 255 0 0
-0.012138 0.018027 -0.027291 255 0 0
-0.123022 0.22445 0.084119 255 0 0
0.196055 -0.310148 0.088902 255 0 0
0.048168 -0.200664 0.186765 255 0 0
0.068524 -0.468193 0.440399 255 0 0
-0.015449 0.00203 0.00129 0 0 255
0.38903 -1.31375 1.1992 0 0 255
-0.097478 0.175187 -0.211491 255 0 0
-0.269662 0.572198 -0.605763 255 0 0
0.801633 -1.64891 1.81403 0 0 255
1.12876 -2.24477 2.43196 0 0 255
-0.289356 0.643504 -0.698924 255 0 0
0.639806 -1.67943 2.01562 255 0 0
-0.030278 0.268044 -0.448874 255 0 0
1.54287 -2.81987 2.66524 255 0 0
2.47759 -5.54851 6.2083 255 0 0
0.89876 -2.06073 2.28175 0 0 255
0.03611 -0.105171 0.122811 0 0 255
0.738118 -1.49811 1.77934 0 0 255
-0.054072 0.094116 -0.08692 255 0 0
-0.006305 0.055983 -0.091283 255 0 0
0.075702 -0.164242 0.174447 255 0 0
0.062309 -0.292624 0.368143 255 0 0
0.060038 0.076342 -0.008402 0 0 255
0.080936 -0.343543 0.573085 0 0 255
0.359962 -0.481731 0.507343 255 0 0
0.019399 0.035266 0.025096 0 0 255
-0.280302 0.644747 -0.677805 255 0 0
0.111296 -0.20985 0.239517 255 0 0
0.348232 -0.607583 0.720661 0 0 255
-0.161082 -0.245378 0.238352 0 0 255
0.532834 -1.20254 1.37317 255 0 0
-0.241834 0.54722 -0.827147 0 0 255
0.016567 -0.03902 0.041105 255 0 0
-0.685825 2.01458 -2.36897 0 0 255
-0.234368 0.290575 -0.135952 0 0 255
0.517713 -1.26342 1.43954 0 0 255
0.318972 -0.569543 0.701968 0 0 255
0.153854 -0.390035 0.396337 255 0 0
0.070635 -0.319743 0.523066 255 0 0
0.895819 -1.92071 2.25935 0 0 255
-0.16279 0.346891 -0.40464 0 0 255
-0.240771 0.456987 -0.585861 0 0 255
-0.265985 0.542207 -0.622853 255 0 0
1.01975 -2.28951 2.77652 255 0 0
-0.323061 0.665892 -0.791844 0 0 255
0.101822 -0.255318 0.285317 0 0 255
0.290057 -0.458191 0.735626 0 0 255
-0.277265 0.551326 -0.653765 0 0 255
-0.186154 0.348035 -0.399572 0 0 255
3.5e-05 0.005209 0.005893 255 0 0
0.100755 -0.2568 0.392191 255 0 0
0.235183 -0.392274 0.366854 255 0 0
1.38665 -2.81749 3.28186 0 0 255
-0.19845 0.110409 -0.191187 0 0 255
0.938381 -1.76743 1.84877 0 0 255
1.00206 -2.03034 2.30107 0 0 255
0.324209 -1.07377 1.54339 255 0 0
0.500864 -1.16509 1.33542 255 0 0
-0.377134 0.368906 -0.419065 255 0 0
0.273753 -0.595668 0.579493 0 0 255
0.169012 -0.672349 0.758953 0 0 255
0.164822 -0.034709 0.197777 255 0 0
0.106281 -0.250193 0.475605 255 0 0
-0.327128 0.519653 -0.797603 255 0 0
0.6944 -1.96478 2.08407 255 0 0
-0.035716 -0.275781 0.209419 0 0 255
0.070387 -0.688396 0.658709 255 0 0
0.100892 -0.202996 0.252734 0 0 255
0.660122 -1.7534 1.91532 0 0 255
-0.028073 -0.172824 0.09479 255 0 0
0.328825 -0.979023 1.09169 255 0 0
-0.339476 -0.157128 -0.023974 255 0 0
0.190716 -0.697974 0.288191 255 0 0
0.215089 0.355953 -0.407939 255 0 0
-0.319792 0.685127 -0.381885 255 0 0
0.356306 -0.885547 1.0528 0 0 255
0.173371 -0.575191 0.549705 0 0 255
0.637461 -1.75784 1.84625 0 0 255
0.318743 -0.720997 0.556691 255 0 0
-0.469479 1.20006 -0.862034 255 0 0
0.225935 -0.748429 0.766797 255 0 0
-0.308665 0.598291 -0.408375 0 0 255
0.060921 0.032899 -0.276134 0 0 255
0.208575 -0.765119 0.757175 0 0 255
0.042814 -0.075012 0.103225 0 0 255
0.097344 -0.603051 0.732645 255 0 0
1.23369 -3.50793 3.43156 255 0 0
0.68605 -2.10799 1.80412 255 0 0
-0.131619 0.277723 -0.17934 0 0 255
0.09985 -0.158477 0.138811 0 0 255
-0.101426 0.241985 0.008519 255 0 0
0.089136 -0.323029 0.146586 0 0 255
-0.168464 -0.047286 0.367193 255 0 0
0.089063 0.334146 -0.351855 255 0 0
0.112472 -0.663182 0.465088 255 0 0
-0.405746 1.12282 -1.07814 255 0 0
0.17138 -0.54467 0.479049 255 0 0
0.081352 -0.210886 0.192793 0 0 255
-0.071966 0.156607 -0.060698 0 0 255
0.078298 -0.115698 0.230473 255 0 0
0.516513 -1.1094 0.886653 0 0 255
-0.491393 0.580394 -0.392464 0 0 255
0.504717 -0.622483 0.675782 255 0 0
0.014313 -0.043097 0.031687 255 0 0
-0.079906 0.30561 -0.32406 255 0 0
0.049824 0.010059 0.026804 0 0 255
-0.363769 0.908185 -0.895701 0 0 255
-0.06138 -0.252638 0.10167 0 0 255
-0.020584 -0.604792 0.693592 255 0 0
0.158487 -1.07852 1.13617 255 0 0
0.18191 -0.567437 0.692398 255 0 0
0.163294 -1.35523 1.40693 0 0 255
0.102603 -0.411167 0.279788 0 0 255
0.355911 -1.08683 1.21999 0 0 255
0.454044 -1.5373 1.62873 255 0 0
0.045582 -0.227758 0.252327 255 0 0
0.002372 0.213901 -0.330355 0 0 255
0.092055 -0.350332 0.399308 0 0 255
0.069553 -0.200303 0.22103 0 0 255
0.007461 -0.057545 0.036741 0 0 255
-0.305987 1.00935 -1.09556 0 0 255
-0.008715 -0.550554 0.686389 255 0 0
0.01028 -0.483763 -0.107272 0 0 255
0.113722 -0.12796 0.727795 0 0 255
0.100946 -0.101552 0.1184 0 0 255
0.378881 -1.23451 1.30928 255 0 0
-0.157568 0.58742 -0.654853 0 0 255
0.246917 -0.73665 0.782105 0 0 255
0.234933 -1.00452 1.21156 255 0 0
-0.087009 0.29515 -0.341343 0 0 255
-0.009364 0.043903 -0.039012 255 0 0
0.143384 -0.197706 0.801437 255 0 0
0.069161 -0.617378 0.108819 255 0 0
-0.12437 0.476345 -0.586811 255 0 0
0.404445 -1.9114 2.51878 0 0 255
0.106671 -0.266754 0.383302 255 0 0
-0.047709 0.015186 -0.043775 255 0 0
0.057478 -0.231555 -0.020881 0 0 255
-0.022479 0.0877 0.100733 0 0 255
0.454665 -2.22647 2.54105 255 0 0
-0.049659 0.190156 -0.218592 0 0 255
0.052027 -0.080316 0.129646 0 0 255
0.185751 -0.276852 0.459609 0 0 255
0.114768 -0.41243 0.496271 255 0 0
0.081864 -0.446679 0.534952 0 0 255
0.173474 -0.60442 0.763813 0 0 255
-0.161738 -0.464436 0.443897 255 0 0
0.425059 -1.40692 1.73055 255 0 0
0.067824 -0.32359 0.279273 0 0 255
-0.085675 0.022164 -0.272075 255 0 0
0.173063 -0.231884 0.574994 255 0 0
-0.114969 0.413262 -0.242402 255 0 0
0.028807 -0.034287 -0.200332 255 0 0
0.260801 -0.861624 1.07776 255 0 0
0.192964 -0.459702 0.624886 0 0 255
0.038743 -0.114182 0.147452 0 0 255
0.033165 0.147848 -0.132654 255 0 0
-0.054607 0.265914 -0.596242 255 0 0
-0.305138 0.877674 -1.11883 255 0 0
0.542429 -2.0071 2.45347 255 0 0
0.095048 -0.410349 0.494327 0 0 255
-0.164494 -0.401467 0.484881 255 0 0
0.202683 -0.101792 0.359924 255 0 0
0.063012 -0.126443 0.177824 0 0 255
0.544572 -1.554 1.77016 255 0 0
0 0 0 255 0 0
0.782907 -2.04546 2.19967 255 0 0
-0.479205 1.15044 -1.27423 255 0 0
0.232303 -0.461133 0.455872 255 0 0
0.621974 -1.39545 1.61536 0 0 255
-0.026256 -0.176315 0.287846 0 0 255
0.247197 -0.707056 0.649383 255 0 0
-0.218828 0.730362 -0.873727 0 0 255
0.334061 -0.916556 1.26867 0 0 255
-0.031802 0.179334 0.012136 255 0 0
0.046438 -0.355825 0.22967 255 0 0
0.390512 -1.11083 1.21629 0 0 255
-0.069714 0.150564 -0.249759 255 0 0
0.132467 -0.125188 0.209616 255 0 0
0.483543 -0.962695 0.955101 255 0 0
0.687879 -1.9099 2.20572 0 0 255
-0.343744 0.806658 -0.922179 0 0 255
0.041615 -0.164128 0.147329 0 0 255
-0.223203 0.397099 -0.435278 0 0 255
1.05386 -2.57791 3.00055 255 0 0
0.733726 -1.75419 1.99036 255 0 0
-0.015816 -0.097438 0.127419 0 0 255
0.061834 -0.134266 0.150062 255 0 0
0.062228 -0.113504 0.095617 255 0 0
0.431611 -0.804267 1.05025 255 0 0
-0.179168 0.33552 -0.397571 255 0 0
0.334705 -0.503107 0.567557 0 0 255
0.392736 -0.654905 0.807609 255 0 0
0.073361 -0.105331 0.128562 0 0 255
0.005371 -0.057932 0.113557 255 0 0
0.527889 -0.936698 1.10298 255 0 0
0.298772 -0.474762 0.543558 0 0 255
-0.142983 0.271454 -0.328033 0 0 255
0.345707 -0.647758 0.835196 255 0 0
0.199081 -0.348337 0.391506 255 0 0
-0.110367 0.329302 -0.345449 255 0 0
0.122434 -0.329061 0.349938 255 0 0
-0.237903 0.315812 -0.318061 0 0 255
0.563854 -0.951133 1.1446 0 0 255
0.751092 -0.753904 1.07524 0 0 255
0.797454 -1.80964 2.09831 0 0 255
0.467321 -0.513403 0.79831 255 0 0
0.045293 0.047536 0.064838 255 0 0
-0.045762 0.256274 -0.243625 0 0 255
0.123553 -0.149114 0.231842 0 0 255
-0.152948 0.388716 -0.438097 255 0 0
1.05834 -2.4144 2.77813 255 0 0
-0.036593 0.27527 -0.165019 255 0 0
0.104986 -0.230236 0.505866 0 0 255
-0.045971 -0.018904 0.190656 0 0 255
0.014213 -0.000148 0.014538 255 0 0
0.096092 -0.148114 0.157286 0 0 255
0.037837 0.303081 -0.311861 255 0 0
0.42782 -1.08099 1.38114 255 0 0
0.732696 -1.71744 1.77932 0 0 255
0.232061 -0.094718 0.085037 0 0 255
-0.254205 0.230996 -0.461399 255 0 0
0.358225 -0.424141 0.647822 255 0 0
0.470458 -1.07675 1.10827 0 0 255
0.18551 -0.287623 0.173772 0 0 255
-0.088757 0.268905 -0.312323 255 0 0
0.539917 -1.43661 1.6157 0 0 255
0.071789 -0.44203 0.698674 255 0 0
0.264628 -0.681342 0.81441 255 0 0
0.091587 -0.266679 0.802604 0 0 255
0.260146 -1.1047 0.879418 0 0 255
0.099821 -0.456157 0.407531 255 0 0
0.247099 -1.11363 1.5036 0 0 255
0.133968 0.313905 -0.22732 255 0 0
0.375446 -1.02527 1.28723 0 0 255
0.031048 -0.111687 0.186371 255 0 0
-0.139388 0.453872 -0.383176 0 0 255
0.442017 -0.847907 1.01358 255 0 0
-0.145425 0.353966 -0.433648 0 0 255
0.311618 -0.82596 0.966086 0 0 255
-0.138486 0.357243 -0.411493 255 0 0
0.709342 -2.33327 3.17315 255 0 0
0.584813 -1.49223 1.49339 255 0 0
0 0 0 255 0 0
0.438183 -1.21938 1.62769 0 0 255
1.28651 -3.95207 5.09722 0 0 255
0.108419 -0.379917 0.620139 0 0 255
2.41529 -6.62186 7.92498 0 0 255
0.661129 -1.63227 1.58397 0 0 255
0.228858 -1.16056 1.64556 255 0 0
0.127794 -0.243617 0.342828 255 0 0
-0.319703 0.849582 -1.10082 255 0 0
-0.297022 0.689888 -0.888339 0 0 255
-0.01219 0.176791 -0.226844 0 0 255
-0.028237 0.111716 -0.141389 0 0 255
0.036794 0.221819 -0.324948 255 0 0
0.591088 -1.54633 2.06488 255 0 0
0.263793 -0.915211 1.08496 0 0 255
0.442495 -1.00013 0.906156 255 0 0
0.382778 -1.06479 0.975574 0 0 255
0.692126 -1.98559 2.55415 255 0 0
0.228808 -0.688836 0.781748 255 0 0
-0.426724 0.33784 -0.511005 0 0 255
0.346261 0.037907 0.101955 0 0 255
0.037439 -0.132256 0.180572 255 0 0
-0.047983 0.166084 -0.20356 0 0 255
-0.110129 0.223541 -0.311248 0 0 255
0.166809 -0.31336 0.277322 255 0 0
0.068389 -0.150003 0.174127 255 0 0
0.652756 -1.43728 1.67876 0 0 255
0.20871 -0.093518 0.087435 0 0 255
-0.011257 0.164509 0.009051 255 0 0
0.151888 -0.464578 0.631161 255 0 0
0.022864 -0.114242 0.312619 0 0 255
-0.046207 0.139903 -0.297589 0 0 255
0.144877 -0.318308 0.381688 255 0 0
0.122422 -0.392043 0.565809 0 0 255
0.04466 -0.117079 0.151414 0 0 255
0.266347 -0.792094 0.98387 255 0 0
0.162133 -0.327563 0.453144 255 0 0
0.018896 -0.131368 0.127676 0 0 255
0.020088 0.008842 -0.061153 0 0 255
0.644783 -1.36387 1.55314 0 0 255
-0.046053 0.125043 -0.228527 255 0 0
0.023509 -0.083803 0.115956 0 0 255
-0.017921 -0.039905 0.026921 255 0 0
0.028512 -0.092005 0.078797 0 0 255
0.062471 -0.391365 0.533077 255 0 0
0.043128 0.111804 0.2098 0 0 255
0.576732 -1.11201 1.26646 255 0 0
0.193322 -0.703349 1.19863 0 0 255
0.286724 -0.806896 0.885554 0 0 255
0.000197 -0.050322 0.028174 0 0 255
-0.173934 0.180053 -0.278513 255 0 0
0.007439 0.171761 -0.124671 255 0 0
0.105703 -0.317875 0.349338 255 0 0
-0.194483 0.478241 -0.553801 255 0 0
-0.172941 0.306203 -0.4159 255 0 0
0.369123 -0.911202 1.04473 0 0 255
-0.250275 0.684855 -0.716195 255 0 0
0.511023 -0.826331 1.08386 255 0 0
0.862283 -1.39797 1.73405 255 0 0
0.108881 -0.412289 0.331454 0 0 255
1.2425 -2.35906 2.95157 0 0 255
0.722913 -1.43511 1.75909 255 0 0
-0.282503 0.557157 -0.653445 0 0 255
-0.060158 0.177166 -0.233309 0 0 255
1.13358 -2.69242 3.13744 0 0 255
1.2942 -2.44095 3.13227 0 0 255
0.184813 -0.588206 0.69351 0 0 255
0.477177 -1.578 1.78624 0 0 255
0.303278 -0.497775 0.672951 0 0 255
1.76086 -3.66266 4.49664 0 0 255
1.22947 -2.51727 3.14232 0 0 255
0.176209 -0.515214 0.78237 255 0 0
0.075214 -0.609598 0.565994 255 0 0
0.148116 -0.285841 0.342771 255 0 0
0.904945 -0.85558 0.614836 0 0 255
-0.167734 -0.510238 0.861078 0 0 255
0.757317 -0.405502 0.65291 0 0 255
-0.121843 -0.31774 0.961397 0 0 255
-0.025923 0.083665 -0.185252 255 0 0
1.03094 -2.00001 2.55188 255 0 0
0.237581 -0.525841 0.576574 255 0 0
0.448662 -0.967441 0.972621 0 0 255
0.523547 -1.11856 1.26006 255 0 0
0.20424 -0.143498 0.020833 0 0 255
0.150087 -0.272905 0.194534 255 0 0
0.223774 -0.419426 0.57584 0 0 255
-0.068626 0.072987 0.097333 255 0 0
0.113901 -0.191102 0.246639 255 0 0
-0.142918 0.295043 -0.330913 0 0 255
0.452056 -0.654235 0.47909 255 0 0
0.3903 -1.30763 1.51274 0 0 255
-0.192119 0.261669 -0.318046 0 0 255
0.491794 -1.15586 1.19079 255 0 0
0.83904 -1.85993 2.05578 0 0 255
-0.177997 0.390547 -0.400287 255 0 0
0.34686 -0.47876 0.514875 255 0 0
1.17201 -2.84085 3.13708 255 0 0
0.151121 -0.239937 0.158718 0 0 255
0.506064 -1.13903 1.11523 0 0 255
1.07592 -2.81656 3.15854 255 0 0
-0.176902 0.510423 -0.910251 0 0 255
0.15429 -0.394184 0.404697 0 0 255
-0.116947 0.145689 -0.056052 255 0 0
0.038962 -0.197674 0.425007 255 0 0
0.496775 -0.995871 0.884824 255 0 0
0.784275 -1.6933 1.73417 0 0 255
0.845135 -1.09624 1.007 0 0 255
0.766569 -1.55013 1.6191 255 0 0
-0.326389 0.895305 -1.28856 0 0 255
0.311153 -0.656538 0.826712 0 0 255
0.226809 -0.529216 0.600928 255 0 0
-0.067493 -0.092411 0.309376 255 0 0
0.174672 -0.115866 -0.105433 255 0 0
0.344671 -0.0823 0.305157 255 0 0
-0.378901 -0.211286 0.102716 255 0 0
-0.095196 -0.286563 0.078865 255 0 0
0.181684 0.153648 0.370579 255 0 0
0.020403 -0.049667 0.067583 0 0 255
0.073088 -0.59781 0.101229 255 0 0
-0.145543 0.289175 -0.19943 255 0 0
0.552376 -1.06038 1.20402 0 0 255
0.085631 -0.182569 0.220854 255 0 0
1.21794 -2.73554 3.13109 0 0 255
0.014099 -0.025491 0.034799 255 0 0
0.170809 -0.35667 0.45624 0 0 255
0.04316 0.102932 0.046888 255 0 0
-0.59267 1.22781 -1.28572 0 0 255
-0.031701 -0.049322 -0.080972 255 0 0
1.11673 -2.76983 3.08539 0 0 255
0.022006 -0.030253 0.037148 255 0 0
0.042587 0.012445 -0.012963 0 0 255
-0.197472 0.167128 -0.261508 255 0 0
0.375605 -0.768225 0.916313 255 0 0
0.196472 -0.281239 0.327216 255 0 0
-0.118934 0.32524 -0.427103 255 0 0
0.322325 -0.719057 0.844305 0 0 255
-0.060238 0.888991 -0.915663 255 0 0
0.105439 -0.50637 0.50902 0 0 255
-0.131059 0.176186 0.053088 0 0 255
0.205412 -0.009099 -0.19392 0 0 255
