-1.071057 1.567002 -3.887724
0.486420 1.899999 -0.972966
3.269134 -6.149870 8.409293
-0.310346 0.717819 -1.190999
0.358459 -1.154878 1.778945
-0.231961 0.032580 -0.064715
-0.016798 -0.635429 1.087652
2.772827 -10.188123 13.498308
2.066614 -7.461820 10.998974
0.854785 -2.723911 3.840993
2.062006 -8.075604 10.979870
3.013464 -10.330190 14.388095
0.012707 -0.231460 0.282973
0.136191 -1.150798 1.228748
0.268954 -2.123838 1.870173
2.426784 -5.832219 6.238107
3.094964 -9.971915 10.798663
1.155486 -3.605471 2.804414
4.490476 -9.189993 9.373497
4.008958 -9.217430 9.273856
2.673518 -5.934399 6.419269
-0.870579 1.556110 -1.646677
-1.162212 1.691830 -1.924824
-0.865991 2.088374 -2.289516
-0.048878 -1.090885 0.816019
3.427133 -8.118397 9.044645
0.271477 -0.384357 1.235211
-0.694468 1.800154 -1.634759
4.167396 -8.871354 9.547394
1.550104 -3.188141 3.643383
-0.558329 1.134201 -1.818246
0.814086 -1.705156 1.620096
3.186273 -7.459725 7.611196
0.538809 -1.153544 1.326570
2.253482 -4.892682 5.355379
7.014418 -15.734306 17.278506
4.230483 -8.676615 9.830531
1.597994 -3.030499 3.517059
-0.425731 2.100125 -2.050032
2.883488 -5.573997 7.155929
-0.830914 -0.730310 0.124887
0.715756 -1.492293 2.132823
4.571078 -9.950006 11.138660
-1.436921 3.732780 -3.813746
-0.594045 -0.640119 0.359752
4.433415 -7.779327 9.647070
1.209101 -5.694243 4.284208
-0.123550 -2.808026 2.926569
-0.483671 -1.671040 2.962358
2.270423 -6.056123 7.131617
3.865208 -9.549250 9.433498
-0.221171 2.115977 -3.548514
0.125743 -0.722279 0.625248
-0.290419 0.609742 -0.734402
0.039563 -1.007540 0.599324
2.413049 -5.495659 6.456113
1.412520 -3.276768 3.522947
2.710224 -8.557436 8.620435
4.024422 -11.716734 11.850022
-0.591774 1.463274 -1.676354
0.087024 0.867929 -1.118615
-0.946474 2.186553 -2.519100
0.070546 0.022459 -0.335526
0.128032 0.066295 0.212824
0.108669 -0.169434 0.260070
-1.466879 2.241324 -1.485894
0.289307 1.333437 -1.403593
-0.197893 1.302525 -1.500142
3.539750 -7.856296 8.261609
-1.178539 0.160961 0.739280
2.472685 -2.653713 1.571774
5.211894 -11.970403 11.861849
3.649740 -9.156483 8.273301
3.249353 -7.720790 7.099892
1.593693 -3.866113 3.818417
0.848176 -1.693707 1.646740
1.284716 -2.984829 2.652663
0.241329 -0.861806 0.540852
3.573190 -8.348812 7.962744
2.500655 -7.286948 7.308222
1.786872 -1.441838 1.869385
1.116338 -3.956641 3.556100
6.546119 -13.006186 12.820558
7.650767 -17.092710 16.800493
4.525072 -8.593509 9.173186
1.652599 -3.580861 3.531359
0.198018 -1.251818 1.600553
-1.389613 2.885778 -3.107514
4.400419 -8.452074 9.048987
0.000000 0.000000 0.000000
3.857358 -9.959888 10.081266
-1.965841 4.864104 -4.447422
-0.146975 -0.097079 0.101101
-0.085933 2.103263 -1.694679
-1.538580 1.276962 -2.324064
1.513399 -4.885319 4.211000
4.872533 -10.974479 9.710830
5.097942 -12.285635 12.136589
1.207572 -1.281880 2.357855
1.163878 -2.163735 2.779321
0.736370 -1.146914 1.792807
6.631347 -16.915622 17.055060
-0.849207 1.956872 -1.362110
-0.441378 1.750009 -0.747266
-0.792986 0.338471 0.247771
6.123106 -13.726750 12.458075
3.647153 -7.582376 8.262710
-0.457099 2.702356 -0.270359
-0.153239 -1.322492 1.639314
4.007128 -8.618754 8.304496
3.329573 -8.024807 8.784192
-1.418283 2.957214 -2.904793
-1.857781 3.545463 -3.423238
-0.294904 0.655222 -0.628318
1.762155 -4.331522 7.045406
1.709720 -3.963025 4.418897
1.191745 -3.040023 2.696565
-0.214201 -0.494484 0.727971
-0.010353 -0.054009 0.235546
0.719410 -1.658223 2.189102
8.033919 -17.191360 16.898859
-2.841557 5.884817 -6.158063
0.342656 0.071724 -0.014849
0.667960 -1.254110 1.374562
-2.087692 4.598436 -4.555557
8.048617 -16.747923 16.586569
2.773861 -7.456450 8.089961
-0.199141 0.059132 1.256715
0.455096 1.209262 -0.519823
1.460490 -1.601576 1.240444
0.996346 -0.780685 1.354062
2.766355 -6.759018 8.133750
3.764730 -9.216800 10.208006
0.069273 -0.080307 -0.078944
-0.766800 1.239890 -1.170657
0.193066 -1.210355 1.540908
-1.610972 3.840317 -4.489176
-0.287750 1.150901 -0.738985
1.439394 -5.091224 3.295117
0.811152 -3.460617 2.211882
6.497216 -13.450307 13.691360
2.843405 -9.849487 10.142223
2.340188 -5.915373 4.895873
4.032838 -7.937605 9.196638
5.698577 -13.211252 13.656406
1.957913 -8.948865 10.668672
4.181472 -9.652402 8.774520
2.020707 -1.321689 3.336868
3.913175 -6.939649 8.840236
4.197282 -9.448766 10.007368
3.822925 -10.540227 10.237875
1.160548 0.405424 1.565048
-0.155071 -2.730806 1.393674
-0.380650 0.874046 -1.331074
4.412293 -9.020564 9.525843
1.987491 -3.392430 4.668465
1.874157 -2.963794 4.632360
-0.823307 1.128592 -1.885113
0.158722 0.056518 0.393616
4.446002 -10.460322 11.644643
1.647932 -2.912304 4.275563
0.289990 -0.736218 0.757187
-0.220452 0.323653 0.024633
6.340061 -10.982807 12.730096
0.792678 -0.887442 1.645172
1.451392 -4.139363 4.272988
0.315758 -0.573044 -0.077079
-0.848986 0.823617 0.241196
0.413309 -0.396313 0.546938
0.676730 -2.487046 2.151405
-0.102126 -0.112834 -0.233232
3.103458 -7.653317 7.837008
2.803674 -0.473457 1.468908
1.417510 -1.331866 3.552141
1.403440 -3.719160 4.194891
0.764584 -0.559219 0.860697
4.356945 -8.511413 9.103362
2.936672 -6.747552 7.692267
2.254712 -5.021131 4.109101
4.301338 -8.131418 10.084033
0.353955 0.359189 1.178363
0.420325 -0.777256 0.868598
5.664818 -12.151757 13.207512
-1.047532 2.343534 -3.178372
1.222591 -2.738827 2.951440
0.277211 -2.755500 3.922949
1.866749 -4.294399 4.888094
2.780963 -6.685632 7.081003
0.980625 -0.889895 1.613836
-1.069873 1.312113 -3.048592
3.560478 -7.977331 8.472746
0.448533 -2.218041 2.943357
-0.293260 -1.304707 2.007341
1.649641 -2.570096 3.002953
1.687844 -2.235748 2.873079
3.813215 -8.399002 9.335172
-1.405473 3.179997 -3.703677
1.213484 -3.009800 3.268110
6.690381 -14.716719 16.373909
-1.176607 2.723228 -3.325897
-0.480319 1.694232 -1.628300
1.997591 -2.775779 2.939672
0.015747 0.531303 -0.368682
-0.696709 1.252030 -1.482404
1.913032 -2.917589 3.495796
3.204966 -4.530421 5.328403
2.178868 -8.374642 9.354730
2.880474 -7.942648 9.184989
2.221281 -3.547770 3.732911
-0.250816 -0.351722 0.707434
0.047833 1.937106 -2.286856
6.575550 -15.409018 16.763206
2.784097 -6.217944 6.799540
0.097568 0.567508 -0.654101
1.140199 -2.531961 1.949822
2.674449 -7.784105 9.332070
1.616537 -3.055634 4.075887
0.043435 -0.198751 0.086481
-1.126257 2.753792 -0.764007
4.036533 -10.280417 9.227617
1.828387 -6.865652 9.026412
-0.479670 -0.133803 0.416855
1.354653 -3.302455 3.169825
0.626816 -1.591023 2.498320
-1.375776 3.921215 -3.760780
-1.143675 2.821624 -2.901634
1.536794 -8.029260 7.102027
4.186543 -10.537106 12.142331
2.126415 -4.953712 5.040843
3.116378 -8.245944 8.557814
1.718597 -4.269741 4.673914
0.041454 -0.876003 1.310624
6.922940 -15.479372 15.983606
6.587376 -15.661268 15.705205
1.185489 -2.775255 2.928880
-1.937066 4.615357 -4.975070
4.760907 -11.540399 12.185260
-0.446544 -0.213171 0.208189
-0.579962 0.712428 -0.871431
1.064041 -2.281164 2.314662
-0.248963 -0.191141 -0.451197
0.152380 0.179150 -0.048657
4.126234 -8.391680 9.016758
1.375719 -3.189131 3.393883
-0.938722 1.523409 -1.731201
0.231707 0.035905 0.332790
2.807731 -8.453404 8.904409
4.946486 -9.161973 10.341736
2.298642 -6.169815 6.092438
0.063773 0.055222 -0.602024
4.671351 -13.411037 13.586798
3.751356 -8.666203 10.116176
3.670250 -11.164544 9.196213
-1.634074 4.384766 -4.455322
0.681613 -1.496453 2.041063
2.938684 -9.046604 9.601585
-0.660206 1.380966 -1.304646
4.471966 -11.373137 10.564363
-2.381287 5.155863 -5.013675
1.402432 -3.018301 2.946796
2.282575 -5.356282 4.872808
6.889634 -16.353887 15.550017
1.015939 -1.419850 0.656740
1.188633 -0.391676 1.565615
0.764736 -1.324546 1.340449
6.221896 -12.749257 13.192185
-0.853281 1.908431 -1.251545
-0.584394 1.970348 -2.120001
1.982454 -4.169057 3.926547
-0.489555 0.164067 0.740418
0.895073 -0.550823 1.248677
-1.768937 4.581586 -6.200571
0.224029 -0.524653 -0.444169
0.143512 -0.393373 1.129412
0.750957 -2.060825 3.025327
-1.567255 4.042741 -4.770281
1.584400 -4.012047 6.760679
0.620972 -1.702787 2.139874
-0.085174 0.392683 0.964969
-0.116434 0.198950 -0.725425
0.955018 -1.588469 -0.418367
5.563905 -12.056077 13.133530
-1.599734 3.626358 -4.148826
3.802166 -9.170841 12.534483
3.797050 -8.390755 8.110851
5.407809 -13.590618 13.664195
3.409555 -7.942269 7.536624
0.766514 -1.441186 0.358485
-0.414779 1.620158 -1.861690
4.087009 -10.209114 10.300205
1.640506 -4.965810 5.144410
1.897075 -2.664562 2.294798
-1.689877 3.113718 -3.076547
3.208885 -8.717016 9.123404
0.507028 -1.650507 1.058162
4.520467 -9.743136 10.400255
0.193496 -0.401359 0.486052
2.437640 -6.219160 6.986940
-0.053929 -0.392079 0.000284
1.121307 -1.250240 1.221074
1.993001 -5.316557 5.348990
2.976087 -7.493320 10.818967
3.731057 -7.411234 8.316962
6.445490 -14.078596 13.489908
6.102119 -15.418617 18.086511
0.747879 -1.758366 1.437252
4.455858 -9.371360 10.035046
-0.105092 0.462233 -0.472915
1.363682 -3.758431 4.142108
3.044283 -10.028056 10.727639
-0.707895 0.642734 -0.493044
2.500722 -6.654984 7.949785
1.124296 -3.207668 3.772980
0.396611 -0.780386 0.546679
1.069197 -1.809638 0.776192
0.886954 -2.485264 2.874677
1.008326 -2.863211 3.294211
-0.051170 1.371961 -1.779964
0.785755 -1.211854 0.731147
1.995041 -9.544783 10.434065
0.178897 -0.316844 0.389049
-1.401925 3.779451 -4.604035
1.769152 -3.803980 3.986186
0.134157 -0.266409 0.321817
-0.769791 1.341389 -1.764962
2.547277 -6.339858 7.344430
-0.243789 1.327710 -1.502435
4.862256 -8.256774 6.791987
6.551184 -11.787276 10.515615
4.037804 -9.599202 8.425551
3.994997 -9.799814 8.806263
-0.969150 3.949695 -3.607687
5.264045 -10.702681 9.189779
4.631681 -8.408465 6.471928
3.979498 -8.275929 7.336932
0.960806 -2.300864 1.465325
4.469959 -8.557401 7.310875
1.565633 -4.212479 3.583997
3.068156 -6.790516 5.934144
-1.114935 2.451307 -2.044365
4.032269 -8.832205 7.764907
4.202233 -8.841334 7.765103
-0.428509 1.035975 -0.888916
3.510918 -7.897132 7.018593
0.634772 -1.059391 1.612228
6.065646 -12.864316 12.212267
-0.313179 0.769607 -0.559434
0.189067 0.546261 -0.152585
-0.553930 1.168524 -1.006729
-0.617065 0.875795 -0.835681
0.748146 -1.694639 1.478545
3.778894 -7.978833 7.201650
0.650508 -3.270825 2.818812
1.780348 -3.819611 3.423492
-0.078847 0.418515 -0.347486
0.012124 -0.296973 0.200120
1.557789 -3.196839 2.900166
3.680757 -9.895455 7.546470
3.428480 -8.544859 7.949788
1.521360 -2.706826 2.539638
3.697567 -7.308012 5.666657
-0.311744 0.314392 -0.266352
1.754270 -3.689897 3.360290
3.507341 -7.364273 5.947936
1.136417 -3.415649 2.492273
5.576378 -9.413146 8.256276
3.662307 -8.887795 9.194617
4.709456 -8.147045 8.997922
8.165539 -17.459594 15.615144
0.195360 -0.245353 0.266510
-1.622071 2.663910 -2.160947
1.285664 -3.130470 2.761218
2.802936 -7.752448 7.154818
-0.724568 1.473726 -1.249447
-0.089301 0.181266 -0.225406
0.962176 -2.060065 1.495189
1.604300 -3.122861 2.456354
0.508640 -0.401172 -0.255579
-1.353663 3.825971 -3.646865
1.664445 -3.883397 3.495558
1.643715 -4.106237 3.825451
5.832108 -11.390376 8.519383
2.677325 -8.326419 8.281724
4.437997 -9.321866 9.158641
-0.631700 2.330429 -1.558114
3.610777 -11.392511 11.074361
-1.335258 2.472206 -2.568078
-2.612209 6.046983 -6.489780
-2.368754 5.635709 -5.814820
3.371907 -7.693010 8.274174
0.740711 -1.880198 1.869709
3.945672 -9.311772 9.738645
0.215937 -1.403353 1.346923
1.263832 -3.034508 3.255728
-0.958400 2.840677 -2.671715
5.077619 -9.611882 10.442254
7.044023 -16.599704 17.474924
4.623113 -9.714286 10.079724
2.566260 -5.777732 6.893719
0.614314 -0.941924 1.093941
0.710567 -1.955980 2.135357
4.254385 -9.791448 10.080601
-1.928923 1.994054 -0.964239
0.121462 -0.636918 -1.053529
0.651069 -1.582442 1.377040
0.792101 -1.878600 1.735582
-1.012762 2.270253 -2.056415
-0.779715 2.259684 -1.647492
5.041741 -9.295079 10.603922
1.817001 -3.239454 3.594127
1.430603 -3.119513 3.291820
3.168883 -7.135598 7.552222
2.196282 -6.053990 4.607735
4.955815 -10.648027 11.098377
1.061428 -4.835854 5.377632
4.130912 -8.607561 9.071266
1.847569 -4.296728 3.861872
0.379817 -2.130314 2.246303
-1.139689 3.177345 -3.115166
-0.490379 1.456607 -1.702196
1.008556 -2.880529 2.873064
2.587963 -8.069955 7.831936
0.049293 -2.635061 1.072451
3.997248 -8.760841 8.550400
2.333391 -9.629199 10.067756
0.521758 -1.133738 1.421099
-0.362798 0.724533 -0.737186
6.670072 -14.266848 13.541877
-1.478674 3.942105 -4.391366
-1.105792 1.642262 -3.042113
-0.232379 -0.249597 0.859364
-1.486590 1.098990 -0.921479
1.418958 -3.040146 3.672391
2.128172 -5.845016 4.787284
1.023775 -2.206170 1.517883
2.302988 -6.332708 6.776397
0.829469 -2.417855 1.987257
1.426692 -3.626138 3.689556
-0.896371 2.772782 -2.481344
1.037653 -1.198783 1.382180
-1.649452 1.699679 -0.888271
0.282985 -1.292233 0.981552
-1.407039 2.801933 -2.955024
0.277522 -0.809293 0.758616
2.920153 -7.932790 7.678575
5.992077 -16.855175 16.535853
-0.557080 -1.034855 1.294058
-0.575888 2.296366 -2.609935
0.280314 -0.893971 0.702994
0.832354 -1.910932 2.281403
1.460314 -4.627583 4.329451
-1.146166 1.514339 -1.702090
-0.022017 -0.224855 1.527818
2.463878 -3.578185 0.801775
1.061343 -0.503127 2.018818
-0.713494 -1.999534 3.495622
1.177685 -4.311440 6.067762
0.596062 -1.251085 1.345588
3.797571 -7.983708 7.806956
4.185732 -9.007796 12.202119
4.203394 -7.093438 7.039407
3.589015 -9.059402 9.752433
2.192933 -6.061467 4.997861
1.432141 -0.958729 1.264427
-1.195361 3.224986 -2.175621
-1.467701 3.387166 -3.108362
1.983827 -1.061269 2.700482
4.084230 -7.618665 5.487999
-0.118928 -0.185014 -2.316646
3.152236 -7.993587 7.970032
0.367452 -0.854385 0.836567
-1.165989 3.170711 -2.800945
0.483481 -0.507422 0.471909
0.921285 1.271741 -1.781828
-1.256222 3.302845 -3.825372
2.149056 -3.953992 4.102150
2.438998 -4.251394 4.125999
-0.993744 0.211748 0.235593
-0.712184 2.674581 -1.608084
1.252143 -3.149212 3.178717
-0.083871 -0.149512 0.190129
-1.170313 2.208639 -3.849776
1.867649 -4.512671 4.704459
1.314084 -3.696321 3.350812
4.457349 -10.783187 11.069252
-0.127168 -0.054687 0.190469
0.471854 -2.223658 1.854534
-2.293296 4.769687 -6.225128
3.595298 -8.671003 8.052812
0.965585 -2.358007 2.437138
1.057499 -2.817414 2.843254
0.689335 -2.776440 2.741810
-1.872991 4.676971 -4.357849
3.236242 -5.197155 6.086915
4.223120 -9.561185 9.783289
1.667624 -4.043768 3.925192
0.431177 -1.116396 0.881041
0.061709 1.668676 -1.183544
3.591639 -9.064149 8.892181
3.302338 -8.924134 8.962230
-1.997472 3.832446 -3.198209
1.768963 -4.373815 3.588704
1.240237 -2.925492 3.269266
1.360866 -2.690130 2.545032
0.019364 0.318131 -1.062858
-1.489571 3.455468 -2.758285
2.066170 -5.659213 5.246767
-0.163705 0.258620 -0.350902
3.092401 -7.491784 7.928203
-2.225851 5.631949 -5.433966
3.210700 -8.279166 8.551081
2.565522 -6.621215 6.389357
-1.351415 3.908384 -3.951284
0.936573 -3.311409 3.591133
3.800935 -7.969014 8.517679
3.353957 -6.826654 8.215476
3.527511 -6.569542 8.055666
2.777207 -5.446876 6.004650
6.893890 -15.557963 16.175596
0.263783 0.346000 0.852996
2.190812 -8.005923 7.500687
0.612854 -0.541547 1.241703
0.325467 1.829326 -1.495692
0.429583 -0.361783 1.261177
-0.664799 1.277419 -1.190754
7.865701 -16.529477 17.818821
0.414036 -0.896087 0.636343
1.883214 -4.390994 4.797405
1.162916 -1.433679 2.308541
-1.206874 1.472782 -2.499598
3.583961 -7.420597 7.541079
3.336837 -8.316079 9.515134
0.444377 1.182849 -0.637643
1.549362 -3.048328 2.853717
3.167524 -7.071066 7.853379
-0.353485 1.244495 -1.007152
0.848163 -1.242671 1.693715
0.158310 0.044573 0.084166
4.036370 -9.416767 10.152565
5.322442 -12.391569 13.127599
2.048661 -3.533964 2.762839
4.220067 -8.974661 9.314805
-0.693187 2.894543 -2.562476
0.656312 -1.351763 1.726920
5.999743 -12.812929 11.802816
2.714078 -3.826486 4.937113
-2.442147 5.772842 -6.002804
2.966257 -6.195547 6.932663
-0.157390 0.435560 -0.430270
0.316354 -0.384217 0.116584
3.713354 -7.987932 8.688084
5.031056 -11.686261 13.050872
0.325871 -0.369584 0.098357
1.417715 -0.579651 1.213642
0.315236 -2.222747 4.102814
1.301824 -0.929617 0.638465
0.006686 -0.720204 1.238980
0.165282 0.433967 -1.014980
7.248821 -15.697937 17.008992
2.425888 -5.639451 5.413918
0.780950 -2.042593 1.804344
1.201294 -4.969978 6.000423
0.262038 -0.869494 1.115319
0.366558 -1.517561 1.713773
-0.737583 -1.144655 2.136954
3.765833 -16.126552 18.001461
0.585652 -6.566030 7.491325
0.205331 -4.389684 4.997597
2.130382 -5.026135 4.334108
1.214021 -7.260866 9.351398
4.319799 -11.281468 10.464447
0.563501 -9.775215 11.452660
-0.035232 0.419698 -0.501376
0.328737 -0.396628 -1.074820
-1.118279 4.653154 -3.717487
1.905307 -8.027139 8.865739
0.256607 -0.568312 0.542810
-0.738985 2.928944 -3.779749
2.030186 -8.483557 9.199952
2.628329 -8.690292 10.533058
-0.397466 1.697745 -2.219299
0.022766 -0.080607 0.049563
1.341652 -6.941140 8.268137
2.082368 -8.828017 8.967860
2.162554 -9.483995 9.349180
0.613175 -6.635674 6.729558
1.184959 -1.428940 0.207930
1.888031 -3.864629 4.747978
0.000000 0.000000 0.000000
0.760816 -4.326581 4.665942
2.305489 -7.764577 9.124209
1.336327 -10.295429 12.348436
2.348280 -11.195830 14.069942
1.591991 -4.064463 4.038785
5.055139 -15.300582 15.528443
1.104844 -9.416305 10.705429
1.565212 -6.258300 8.730905
1.264196 -4.500595 5.317945
0.435589 -1.647375 1.663044
1.229190 -1.982462 1.800970
1.233793 -3.564033 4.061684
0.871229 -0.366746 0.333041
0.268377 -2.834193 3.340745
1.481365 -3.065010 3.164825
0.919496 -2.035729 2.218435
-0.036562 1.024654 -1.057546
-0.117802 1.136731 -1.292779
-0.404736 1.350767 -1.481734
0.132015 0.226962 -1.018061
-0.187465 0.890527 -1.050136
0.194542 -0.594667 1.058843
3.049732 -12.622720 14.656957
0.872768 -3.534598 4.230651
1.628397 -6.573926 8.251024
0.619344 -2.441170 3.012578
1.834578 -8.359187 9.906174
-0.443047 1.394962 -1.694347
0.232522 -2.377851 2.829434
1.370488 -5.776792 6.488451
2.128400 -6.574123 7.932524
-0.009546 1.045175 -2.275374
0.968853 -9.039336 10.599631
-0.841474 3.575222 -3.948903
-0.607048 0.734473 -1.147772
0.354158 -1.286145 1.361941
1.865095 -8.819835 9.335987
-0.153455 -4.845173 3.789800
1.309394 -9.057235 9.526468
1.460411 -7.946167 8.900403
0.930990 -3.068840 3.950232
0.002739 -0.045438 0.055199
-0.320630 1.478552 -1.958948
3.431729 -15.703191 17.217414
-0.298841 1.305334 -1.245595
1.230459 -8.617604 10.481016
1.967435 -6.464238 8.332849
0.102894 -0.692529 0.735733
0.193145 -0.698785 0.717414
-0.998803 3.455402 -3.863507
0.073852 2.075637 -2.300592
4.092032 -16.725497 18.159606
1.900458 -8.610240 9.802607
2.714164 -12.701655 14.503638
0.721544 -2.494195 2.706881
0.231573 -0.538878 0.642239
2.809156 -12.635120 12.933487
0.918722 -5.022352 5.301864
0.830640 -3.152680 2.871206
-0.750028 -0.329705 -0.542402
-1.325874 5.166703 -5.867163
-0.192240 1.521573 -1.946912
1.326965 -7.267765 8.067095
-0.752136 1.820027 -2.627666
1.974453 -8.598771 9.878622
0.194693 -0.946371 0.786000
-0.421777 0.446348 -2.066400
0.408262 -1.592184 1.312128
1.193810 -6.184952 6.427301
-0.389480 -1.109073 1.520120
2.583397 -7.560047 7.949624
0.297588 -4.130672 4.499432
1.370224 -7.720622 8.418231
-0.101832 -2.502971 2.322953
0.845787 -3.513530 3.639445
-0.066728 -0.389755 -0.091727
-0.087769 -0.978819 0.418860
1.145216 -7.609998 8.905060
2.023978 -6.662715 6.912820
0.627242 -5.132371 6.176695
3.567946 -16.930411 18.485745
1.768518 -7.855937 9.457149
0.057319 -0.695113 0.796116
0.240856 -0.802226 0.879012
0.496348 -0.072194 0.239417
-0.589927 1.449377 -1.604828
1.562807 -8.739267 10.486742
-0.249524 1.333137 -1.430090
-0.406025 1.679702 -1.945337
0.104065 -0.788542 0.858872
1.580497 -3.739465 5.982958
3.383776 -9.149043 10.456550
3.414940 -13.291246 14.882697
3.756203 -17.327803 17.845351
4.331298 -17.615249 18.828089
-0.213763 0.652011 -0.225983
3.327790 -9.146352 10.577459
1.684244 -9.218255 9.409200
1.806309 -8.588389 9.212176
0.721669 -3.576580 4.027258
0.097649 -0.941929 1.065917
-0.651487 2.899330 -3.059795
0.153506 -0.833967 1.027147
-0.745874 1.538543 -2.536241
0.178762 -1.892336 1.993219
0.803821 -0.877514 2.305611
-0.208279 0.387726 -0.088106
2.293055 -6.892155 8.143535
1.015847 -4.219534 4.470378
1.020683 -4.062885 4.327749
-0.105136 0.212166 -0.171896
1.100495 -3.145045 3.417574
0.211846 -0.768872 0.810134
3.187178 -12.244251 13.327949
2.569002 -9.345480 9.947566
2.161548 -7.860975 8.659587
0.543457 -1.501136 0.892471
3.215318 -15.325862 17.130487
1.888129 -8.437623 9.238508
1.764834 -9.254856 9.451086
1.067082 -4.422733 5.011606
-0.702004 3.255260 -3.049189
-0.207993 0.992826 -0.613116
0.629834 -1.818990 1.872965
0.073661 0.054911 -0.112613
0.647687 -2.113640 2.655230
-0.042294 1.370977 -1.917114
1.191366 -6.618097 7.681026
1.617036 -7.654644 8.082294
-0.364980 1.422890 -1.467190
-0.484421 -1.471204 1.406536
0.980395 0.181542 0.026662
1.052011 -6.638373 7.154401
0.542235 -3.990728 4.004772
4.480739 -16.488638 17.842723
3.640723 -10.138464 11.016089
-0.467100 1.840507 -1.926208
-0.568824 0.697938 0.447207
0.513560 -2.710474 2.253012
0.173777 -0.871036 1.287478
-0.129283 -0.751163 2.579179
-0.427401 -1.270970 2.095017
0.305111 -0.318804 0.269944
0.021074 -3.112918 4.073303
1.510266 -2.609726 1.717425
0.523215 0.310372 -0.043611
0.070079 -0.232724 0.297240
0.161882 -1.508253 1.194725
0.193505 -0.558908 0.561586
3.731286 -10.373783 12.031040
1.368748 -11.047354 12.532924
3.792091 -16.600448 19.131940
2.138241 -11.745122 14.608850
2.213472 -7.757488 7.979378
0.541641 -0.373311 0.313958
0.325416 1.334779 1.596581
-0.867056 -0.961469 -1.910539
1.834343 -7.120212 8.614944
0.130900 0.896614 -1.303499
0.923774 -0.160150 0.262246
-0.824231 -1.196457 1.319664
-0.061191 -2.785735 2.179356
1.306599 -11.154011 11.821862
3.233200 -9.596585 11.234334
-0.262193 -3.831020 4.478901
-0.098439 1.395585 -1.262050
0.055906 -3.443151 3.649923
1.154478 -8.252839 8.242644
1.660152 -8.939406 9.834210
2.134171 -7.870823 9.289175
-0.359797 0.282895 -0.581128
0.107038 0.430218 -0.322177
2.037227 -8.536878 9.336243
-0.321381 2.677757 -2.937905
0.121026 -0.722877 0.671805
0.303181 -0.543433 0.691177
-0.001072 1.558547 -1.566260
0.326572 -3.958608 2.407956
1.507309 -0.032047 2.546483
-0.029720 1.399781 -1.718003
0.695167 -3.138030 3.297868
0.672429 -3.241656 3.691265
0.165081 -2.706346 3.087885
-0.179663 2.345306 -2.300442
2.733932 -10.707318 12.185539
0.716807 -2.394362 3.066489
2.851788 -1.633459 2.664729
2.733033 -7.410695 8.180116
1.576763 -7.138423 7.603462
3.468024 -12.119006 14.280910
1.209342 -9.363674 12.901643
1.260078 -8.347871 8.566123
-0.015747 3.518841 -3.638850
2.384610 -5.800739 6.904993
0.885616 -8.466071 8.062332
1.894101 -10.430663 10.924190
-0.918314 3.324769 -4.204613
1.819566 -9.889617 10.300017
2.230570 -9.491437 8.864748
-0.447604 1.864107 -2.129547
2.124962 -10.395515 11.012834
0.364563 -2.110726 2.065567
0.956611 -3.581286 4.000138
1.400096 -4.208467 4.743026
0.142076 1.469234 -1.703555
1.660656 -6.226734 6.632753
1.121564 -1.789709 1.353246
1.412987 -3.511442 3.054318
2.098869 -7.463697 8.470230
-0.151702 1.820270 -2.327776
2.685748 -8.291406 11.585289
0.152220 -7.689304 10.529549
0.399026 0.207199 1.100344
3.305037 -14.865231 18.862159
-0.691354 -1.400180 2.108424
0.380693 -0.589037 1.366756
-0.757771 2.274201 -1.907080
0.961678 -0.174503 1.226667
0.757932 -3.806437 4.486279
-0.529392 -1.376259 2.562431
3.016152 -10.901752 14.082460
0.319334 -1.111042 3.703229
1.832242 -5.267414 5.469217
-0.122336 1.664886 -1.481713
0.191117 -0.988965 1.484578
1.133090 -9.504482 10.677894
2.178821 -11.278690 12.659608
1.320905 -7.749943 9.631438
0.929079 -4.373256 5.166427
2.302323 -11.807847 15.132553
0.709156 1.157982 -1.552924
-0.641281 -2.886964 2.890986
-0.541492 1.688918 -1.168088
-0.319225 0.451608 -0.036702
-0.351214 2.445039 -3.295339
2.320624 -12.201335 13.142501
2.616609 -16.105253 17.469456
0.133164 0.131700 -0.375439
0.686383 -2.083039 2.518867
-0.076298 -1.396977 2.021258
-0.059954 0.539667 -1.604649
-0.300628 1.495749 -1.700567
0.771926 -4.303621 4.691575
1.311115 -7.343934 8.236596
2.934798 -10.634763 10.654158
1.737877 -4.338960 4.157851
-0.746917 -0.271880 -0.363940
2.000226 -3.090498 2.959060
-2.482105 4.828119 -4.367073
2.431031 -6.370196 6.815413
0.525083 -1.165459 1.227910
-0.457101 1.278908 -1.335402
1.524990 -3.651709 3.172251
-0.045219 -1.062006 0.047260
2.961428 -3.791240 3.433861
-0.871385 0.829642 -1.458826
3.519122 -7.799074 7.440584
0.039378 -0.648584 0.371747
-0.731534 1.744609 -1.353163
-0.457044 1.739668 -1.677949
2.295147 -6.935543 6.589407
0.746606 -2.093541 1.996712
2.598445 -7.720470 7.260310
-0.965344 2.053691 -2.218492
2.528741 -6.208139 6.781487
1.520057 -3.618946 2.608782
4.959350 -11.262183 11.892116
-1.338633 2.086658 -2.043489
-0.710460 0.832989 -1.033847
-1.007194 3.352989 -4.064136
-0.620386 2.128684 -2.132565
4.186983 -10.134881 10.845083
1.118303 -2.986612 3.271019
-1.125733 0.128993 -0.649571
-0.815517 1.616305 -1.996790
-0.375408 0.705430 -0.682742
-0.909330 2.204278 -2.916431
2.742058 -6.484471 7.142433
-0.250721 0.289571 -0.614622
1.742006 -4.856273 4.619318
2.565544 -7.171045 8.450257
0.407786 -3.344666 2.745172
2.233503 -8.348450 9.381623
1.234639 -3.876324 3.549698
2.895419 -9.061648 9.407133
-1.217946 -2.634104 0.719772
2.579569 -10.852848 11.626271
-0.166221 1.104194 -1.490736
2.976249 -13.016648 13.741805
0.268536 -0.167133 -0.028632
1.238040 -7.096651 8.110163
1.688422 -7.429989 8.714229
2.192421 -8.334715 8.778920
1.083063 -4.386762 4.277031
-0.520600 3.046095 -2.239862
0.756649 -1.947360 0.733789
4.833581 -16.536362 17.565126
1.027964 -3.117281 2.750420
0.465290 -2.966458 2.528836
2.768351 -9.858656 9.768484
-0.655274 3.504663 -4.759248
2.888000 -13.642610 14.738594
-0.739222 0.415290 -0.300403
2.510554 -8.558711 8.993787
-1.649002 5.277370 -5.832167
-1.176654 3.313369 -3.046783
0.383376 -1.300453 1.549636
1.709371 -7.207651 7.790356
2.177540 -8.068284 8.473209
-0.433904 0.647353 -1.164245
2.423498 -10.221005 9.572413
-0.379515 0.050229 -0.071429
0.674305 -3.693599 3.888962
1.459515 -6.597625 7.175261
3.820225 -16.064730 18.537719
2.462055 -8.955744 9.515498
0.708227 -2.475859 2.516652
0.223843 -1.194823 1.172318
-0.944298 2.873832 -3.043800
4.074554 -16.804716 17.787492
1.855329 -7.845710 8.483835
3.857378 -16.280020 18.819980
3.371941 -8.935211 10.541066
3.575819 -8.918838 9.698654
-0.436622 0.824500 -0.574560
1.352508 -3.403882 3.644232
-0.097427 0.316295 -1.085844
-1.180646 2.938859 -3.497356
0.171555 -1.474284 1.155728
-0.456329 -0.280109 -0.026391
0.444778 -0.552648 1.082270
6.836288 -17.045651 18.619619
0.615125 -1.205840 2.408083
-0.860119 1.632478 -2.256559
-0.132991 0.422603 -0.030386
0.144574 0.005710 0.556609
0.468292 -0.873266 1.382123
3.678406 -8.619323 8.415442
-0.087269 -0.757663 1.189194
0.321543 -0.179229 1.530664
-0.461373 0.742895 -0.971101
2.019358 -4.206457 4.155574
1.427351 -3.034906 3.275934
0.206825 0.423937 0.138657
4.608686 -8.694146 8.988251
2.208037 -5.012475 4.919289
0.576563 -1.769839 0.413535
1.930136 -4.261552 3.965675
1.259692 -2.018981 2.250018
-0.390928 0.572753 -0.153302
4.921552 -10.976771 11.828934
0.549036 0.216788 0.129140
3.471213 -8.039409 8.318247
2.360573 -5.165480 5.468886
-1.194559 2.602105 -3.036787
-1.492165 3.564766 -3.774223
-1.100482 2.207984 -3.137831
2.472315 -9.515866 10.017405
5.540408 -7.738035 8.408466
3.107916 -6.769939 7.823942
4.895208 -11.578150 13.323705
4.541006 -11.481945 10.716418
0.335019 -0.792980 0.792688
1.935888 -4.294264 4.193398
-0.645035 -0.281988 0.037168
1.072658 -2.581757 2.577199
4.951735 -13.204506 12.578263
3.325217 -8.372530 8.375623
0.300141 -0.831155 1.108707
0.407673 -0.590995 0.571562
1.010330 -2.467109 2.314415
1.522146 -3.074878 3.545822
-0.074803 -0.036507 -0.178516
-0.536722 1.177388 -1.173684
0.947834 -2.329449 2.870849
1.796445 -4.406316 3.844069
3.628846 -7.123446 7.448312
0.220684 0.129360 0.405888
0.217404 -0.259625 0.489562
-0.137292 -0.023454 -1.970302
0.765367 -2.956218 2.990577
1.736102 -5.103565 3.976169
2.192065 -4.197997 5.780589
4.929234 -8.701689 7.852315
0.043354 -2.228145 -0.360626
0.189279 -1.373103 1.543276
1.601667 -3.126770 3.074248
3.697945 -8.021559 8.506957
1.353381 -3.643811 4.165427
0.506017 -0.375617 0.206949
2.448905 -8.490184 10.600837
-0.696177 1.707485 -1.548893
3.403779 -7.301289 7.678687
3.558966 -7.679728 8.300765
-1.491786 3.176885 -2.760786
0.536312 0.116073 -0.286550
-0.291339 1.135511 -1.307725
3.563334 -7.670773 8.866360
0.724828 -3.128050 3.034841
1.934788 -3.058025 3.994419
-0.590319 1.785131 -1.614113
0.040463 0.476399 -0.822903
-2.045104 4.360334 -4.507951
-0.482458 1.086107 -1.204725
-0.364062 0.613818 -0.998173
1.940978 -3.724687 3.678994
2.730410 -5.042957 4.896482
0.226546 -1.265581 1.453294
0.576124 0.949978 -1.574403
-0.576124 -0.949978 1.574403
0.557229 -0.577711 0.399609
-0.360343 0.536537 -0.777130
5.894589 -11.480509 12.866288
1.145776 -4.480323 3.312180
7.109169 -16.469050 16.637067
0.678837 -1.750893 1.248592
1.617828 -4.280524 4.324680
2.009838 -4.304862 4.293572
2.347819 -7.688806 8.944115
4.577229 -7.869617 6.698770
0.040340 -0.284091 -0.301268
0.387403 -0.751349 0.851139
-0.204377 0.321885 0.122644
-0.536591 -1.879014 3.085998
2.031545 -4.353320 4.605582
1.289416 -1.957512 2.708355
1.091516 -2.741679 3.656623
-1.961792 4.177952 -4.031656
8.503100 -17.069962 17.191523
0.908760 -1.793111 1.806618
0.638808 -1.658142 1.470472
4.923104 -11.511168 11.815445
-0.221268 1.406985 -1.107263
0.726041 -1.312170 1.738503
6.609766 -17.228576 17.614229
0.902198 0.980236 -0.034499
2.703226 -3.398217 2.480436
0.576433 -1.149155 1.030930
0.706340 -1.829037 2.042180
4.488484 -8.724063 10.060611
4.342937 -9.681521 10.233854
0.208812 -0.630772 0.951202
2.185243 -5.157715 5.245405
-2.804971 6.632013 -6.550533
-0.928427 1.097603 0.384778
1.871891 -4.496209 4.871982
1.152556 -2.899715 2.634922
1.839818 -2.090218 2.380671
4.904401 -11.273705 11.791192
3.495699 -8.372149 8.863360
0.360144 0.207609 -0.093760
0.671615 0.800810 -0.206995
0.351401 -1.308924 1.507467
-1.194014 -1.555618 0.134640
0.781424 -0.720211 2.512808
1.591933 -3.591116 3.124795
0.833382 -3.478410 4.664689
1.436786 -1.186384 1.372676
1.285129 -3.594697 3.355857
1.146524 -1.256848 0.924854
0.210766 -1.511490 2.229362
1.138338 -2.032265 2.671527
-0.837941 1.501828 -1.851044
0.948205 -1.616365 2.107027
-0.703330 2.321897 -2.099832
4.307724 -9.047590 9.549764
3.173413 -6.626082 7.388897
0.413222 -1.923488 2.220845
-0.364339 0.656627 -0.817685
-2.023689 4.531039 -4.509762
0.743782 -1.697139 2.002295
-1.138461 2.143604 -2.983311
-1.617172 2.727302 -2.539610
0.449022 -1.133871 1.243606
1.344487 -3.154694 3.361997
2.616502 -6.079046 10.101393
3.438776 -7.613108 6.143310
0.416964 -0.713504 0.971413
2.536055 -7.638072 10.244758
3.586002 -9.432922 11.012157
5.486508 -8.134705 9.013135
1.809889 -2.076157 3.213538
5.700174 -11.869357 13.626684
4.848114 -13.143753 14.255889
5.299041 -11.631812 13.140778
3.358503 -7.023173 7.563020
1.140024 -3.052885 2.627038
0.255135 -3.038700 3.809442
1.309475 -0.825235 -0.230826
2.105444 -4.357580 4.431166
7.014865 -15.658969 16.696498
-0.016120 -0.544793 0.189104
-0.514807 -0.276738 0.392158
1.073182 -1.062205 0.972887
3.061807 -6.405019 7.092090
2.754157 -6.714931 6.985712
5.192069 -11.215495 12.243574
-0.158031 0.270970 -0.645292
-1.289650 2.414263 -3.127477
-0.852328 1.133225 -1.105076
-0.390410 0.192558 0.651109
0.941207 -2.346124 2.555906
-0.546037 0.561051 -0.716662
-0.218642 0.006766 -0.762014
1.148856 -2.628030 2.656480
3.132277 -7.054849 8.089697
-1.302699 2.513100 -2.178250
5.407744 -11.777017 13.238663
-0.545031 0.944069 -2.121433
-0.652014 -1.219062 4.314141
2.372078 -2.375051 0.337644
-0.366456 -2.565781 2.014947
1.026084 0.552612 0.037889
7.316273 -16.685736 18.392871
5.507992 -12.015642 12.635855
2.335242 -5.129890 5.927155
-2.457179 5.424130 -5.723758
-0.271972 1.130233 -1.881424
0.417459 -0.914972 0.576959
1.705170 -2.709587 2.535271
1.105930 -2.283143 2.611165
3.879306 -7.643802 7.787109
0.258977 -1.954678 2.252928
2.806934 -1.567246 3.926580
1.430010 -2.756188 3.115171
3.163928 -8.345040 9.281460
2.760087 -7.703170 6.980760
2.400736 -4.759078 5.751741
-0.976299 -1.098782 0.704323
1.639737 -3.044291 4.524956
0.985183 -1.406449 0.528618
1.438641 -3.810573 3.770652
2.537384 -4.390003 4.916712
1.062378 -2.451336 2.616245
-0.985504 0.182913 -0.677759
0.492531 -1.605373 0.097231
-1.857074 0.780667 -2.825979
-0.716780 0.246883 0.170152
-0.270597 3.545664 -2.516833
0.998478 -2.080793 2.431977
3.709186 -8.583428 8.616028
1.609131 -3.510928 3.341241
1.707158 -3.916130 3.908199
0.021498 2.042497 -1.839245
-1.511187 1.362158 -1.608131
0.110658 -0.337262 0.110222
0.877675 -1.519322 1.872056
3.077680 -7.160132 6.897497
1.025118 -1.500330 -0.319152
3.900079 -8.911315 8.463202
0.330291 0.303723 0.172608
1.331297 -5.122198 5.710336
3.907502 -8.116285 8.536005
-0.565600 0.750171 -0.847473
1.762870 -3.082358 4.586455
-0.303661 -2.432412 3.784662
0.015290 -0.075329 0.631435
1.829349 -4.106788 4.453087
-0.511151 2.004071 -1.619364
2.208088 -3.310213 3.871662
3.761774 -9.113556 8.513460
0.073600 -0.030329 -0.005047
0.236202 -0.412824 0.403349
1.767216 -1.267966 1.131259
7.761684 -17.416030 17.052256
-0.546653 0.910476 -1.200018
0.901987 -1.848367 2.041077
-0.328627 0.545943 -0.681445
-2.439197 5.574712 -4.981657
1.084973 -2.074389 2.532860
2.926785 -8.384680 8.860318
-0.798860 -0.990558 1.345519
1.681570 -3.520575 3.284095
-1.305392 2.728045 -2.886957
-0.575498 -0.710749 -0.718339
5.364683 -10.034393 8.789212
3.332397 -8.232254 7.597051
3.033272 -7.186542 6.876017
3.608360 -8.050158 7.611812
-0.183989 0.837703 -0.748143
1.108705 -2.686221 2.528007
3.886683 -8.138863 6.934811
-0.006518 0.254848 -0.316713
3.581033 -7.749725 7.624361
3.327011 -7.653851 6.936463
5.001807 -10.128507 9.524111
1.357140 -3.191045 3.404317
1.376629 -2.456914 2.652609
1.252599 -3.470620 3.522579
3.684828 -8.181415 9.504102
5.455607 -13.609666 14.341246
0.392125 -3.217619 3.672256
2.183744 -2.078504 2.047899
6.250726 -11.189433 9.787587
0.357724 -0.739314 0.750244
5.266583 -13.263131 14.009742
-2.713416 5.703502 -5.563142
7.816686 -17.700252 17.160064
5.964129 -13.403755 13.119328
0.689609 -1.805222 2.051994
4.137341 -8.392137 10.540908
1.040777 -3.436664 3.622378
0.964798 -2.004387 2.029595
0.098360 2.933668 -1.669518
3.940088 -9.455472 8.304680
2.161198 -5.028418 4.808264
1.433164 -7.368731 7.734451
4.962820 -7.867040 8.724629
-0.518766 1.525921 -1.348949
-0.177463 -0.022785 0.080577
3.386335 -7.229190 7.050090
1.716474 -6.389912 7.374998
3.796131 -6.807680 6.189035
0.696032 -1.522491 1.911517
0.155529 -0.608843 1.065443
0.549908 -1.102022 0.554180
-0.225070 -2.030566 1.063467
8.450014 -16.913333 17.203096
1.790972 -3.482780 3.499861
1.128593 -1.511336 2.165722
-0.232360 0.703857 -0.532864
3.323260 -7.457552 6.271824
5.441947 -11.879605 11.319703
-1.707310 2.364032 -2.927516
2.971096 -6.053059 6.210620
6.710484 -12.400454 11.247847
0.548865 -0.261005 0.603787
3.329572 -0.935429 3.138731
-0.081567 0.940330 -0.806183
0.458547 -0.790964 0.875449
6.009379 -12.455144 12.662334
3.560813 -6.767063 7.702764
-1.794412 4.111758 -5.642502
3.767744 -7.575426 6.786602
-0.302127 0.270266 -0.399231
3.826039 -7.672550 7.143099
3.359092 -7.227343 6.795436
-0.467542 1.493645 -0.933844
1.455210 -2.383279 2.669111
-0.208147 0.680083 -0.422488
0.629912 -0.874738 0.972935
1.809411 -3.522737 3.402919
-1.271771 3.881466 -3.255774
-2.168761 4.201944 -4.226249
0.054842 -0.362740 0.233424
-0.934349 1.832421 -1.778692
5.088317 -12.252682 11.558422
3.128759 -7.382960 7.340278
1.559306 -3.294502 3.341875
3.990328 -7.194980 7.221375
1.652483 -2.951714 3.499732
-1.364526 2.136255 -2.929520
-0.946952 1.867595 -1.883951
0.305729 -0.714534 0.693006
0.099689 -0.058172 0.192767
0.721698 -1.655254 1.546533
0.950796 -0.973316 1.912149
1.705121 -4.494937 3.618419
-0.060742 -0.643546 -0.367918
0.007865 -0.463659 0.385361
2.068124 -4.760946 4.051729
4.231975 -9.252855 8.859945
3.782983 -8.415192 7.078361
4.429771 -10.899074 11.064917
3.671865 -10.007011 11.108342
6.195923 -9.896680 8.447395
-0.773666 1.035622 -0.741174
1.942969 -6.012612 4.229197
3.400806 -9.519068 8.574490
2.239801 -7.859951 7.392878
4.481949 -11.607166 10.384021
1.538194 -3.569066 2.994539
1.604876 -3.529893 3.472117
5.846781 -12.634417 11.684199
3.808601 -7.679795 7.025880
-2.359609 4.948896 -4.353352
2.420919 -10.324897 8.707798
4.446608 -8.695642 9.017272
0.403004 0.165634 0.247743
-0.200677 0.110601 -0.166187
0.245540 -1.086069 0.883021
6.146523 -13.497215 13.325774
-0.187780 0.271466 0.802656
2.353482 -4.960913 4.428500
-0.622627 1.204282 -2.682926
-1.027203 -0.191662 -1.113537
1.994886 -4.956125 3.771225
0.068728 2.259577 -1.469743
0.624790 -2.233679 1.953520
0.021333 -0.050676 0.048165
7.749081 -16.439215 17.697829
-0.308137 0.739437 -0.457964
1.309966 -3.168906 3.502919
-0.496252 0.619802 0.436298
3.791169 -7.483307 8.154739
3.696518 -8.083624 7.792384
0.366707 0.839062 -0.958128
1.325619 -0.750559 0.403467
3.990869 -6.986799 6.640445
3.798275 -10.953965 12.929295
-0.316196 2.963853 -2.363660
-2.806637 3.024886 -3.622849
0.464670 -1.129030 0.735752
1.037956 -2.728975 3.393985
0.218065 -0.261398 0.561266
2.388354 -2.507433 1.081157
-1.303797 -0.608175 1.383831
3.551099 -8.603180 7.344834
-0.280295 0.452728 -0.537029
0.113744 -0.932684 0.013771
0.789829 -1.207460 1.272484
1.174401 -2.044093 1.969237
-0.529646 1.159081 -0.915806
-0.027743 0.039050 0.005074
0.474703 -0.759277 0.664442
1.174462 -2.261486 2.228216
3.553225 -8.286653 6.806167
3.286016 -8.537278 6.609295
5.251024 -11.755558 10.946479
1.347201 -3.317981 2.658172
3.502322 -7.886908 6.489347
-0.054812 0.413009 -0.392914
0.165735 -0.208234 0.200447
-2.085189 4.608603 -4.401621
4.065806 -8.688889 7.781440
4.546305 -9.414504 8.573757
3.585092 -7.519877 6.769872
5.445353 -11.760772 10.580892
0.682170 -1.517286 0.913687
5.794826 -11.873289 10.842037
3.818317 -7.374779 6.433968
-0.395090 -1.035922 0.923100
2.366598 -4.974283 4.340338
-1.225765 2.689814 -2.282243
-0.860267 1.417890 -1.222277
3.864027 -8.144024 6.984528
5.611225 -9.884784 9.529200
1.200726 -2.357835 2.133509
0.164890 -1.476747 -0.349297
4.788186 -9.342412 7.451054
2.912268 -5.356510 4.870530
-0.606450 -0.029917 0.295355
-0.279941 -0.422428 0.848329
3.379127 -9.798288 8.440581
0.765268 -4.514833 2.877694
0.606830 -0.179499 -0.854703
0.488560 1.486889 -3.411575
1.380354 -4.657996 3.362504
4.321753 -8.701074 6.725106
6.555728 -15.107019 15.182502
0.988669 -2.287014 1.829308
1.448053 -2.756961 2.492452
-0.453445 -1.322905 0.665108
7.224803 -16.612751 15.249651
3.393564 -7.750926 7.307182
1.199257 -2.688520 2.853386
2.607553 -2.965428 4.281078
3.209166 -8.086183 9.262732
-0.565885 1.361537 -1.462382
-1.231950 1.596294 -1.252112
0.921508 -1.446869 1.622814
4.792463 -9.579834 8.864831
1.786450 -1.987862 1.592415
0.000000 0.000000 0.000000
0.474772 -3.138065 3.235284
1.556395 -3.353943 3.130071
3.004204 -8.592088 8.028338
6.977889 -17.540919 16.996971
4.822670 -8.582969 8.063074
5.268025 -9.710511 8.681135
2.768660 -8.885164 8.973047
4.880931 -7.925350 6.992478
0.539555 -1.700863 0.934024
1.575591 -3.575709 3.730981
1.186611 -3.494407 4.924822
3.067774 -8.265156 10.545662
5.095356 -11.691457 12.714747
5.466773 -12.291893 13.912173
4.975396 -10.681915 10.038265
1.958257 -3.452930 5.156471
0.462611 -3.623360 2.730108
0.695080 -0.580121 0.313210
-1.180122 1.773680 -2.056950
-0.023476 -0.069747 0.025623
1.560261 -7.564422 9.619072
0.503067 -6.582476 8.329164
-0.039560 -0.871250 0.916563
2.515956 -6.827485 11.979149
1.991605 -7.592137 9.723554
-0.265610 0.720279 -0.707341
0.900758 -0.197497 1.711427
-0.544228 -1.933481 1.250855
0.153032 -0.163481 0.223107
0.131477 -0.117323 0.119711
3.225574 -10.241406 11.879772
1.890693 -6.388014 7.008124
-0.020729 -0.257144 0.184959
-0.195469 -1.776559 1.352025
0.597809 0.277370 0.713543
5.065473 -14.214780 17.055488
-0.797075 1.654004 -1.993806
2.705854 -7.510423 8.761838
-0.589909 1.549478 -1.777824
-0.279969 2.416176 -2.209254
0.258418 -0.526823 1.165641
2.186254 -7.654443 10.822436
2.723734 -5.838165 9.089456
0.116531 1.619057 -2.299070
1.815604 -9.822758 12.016333
1.163258 -2.177657 3.628996
2.653027 -15.765292 19.482139
0.209935 -0.113917 1.258219
-1.294493 3.924508 -5.323239
1.766776 -5.597995 8.059036
0.782115 -2.426009 3.517736
1.057396 -2.905380 4.068945
-0.916875 2.673991 -3.688117
0.992276 -2.945984 4.362961
-0.467982 2.266464 -2.908936
1.051964 -3.118071 4.324084
2.102272 -2.978543 3.525369
0.027487 0.013578 -0.525115
0.044986 -0.084433 0.105579
1.494164 -3.525768 5.018109
3.421158 -9.423638 13.187545
2.615796 -6.137883 8.091475
0.944421 -3.420856 5.027823
3.225918 -7.396191 7.841202
1.684120 -2.935986 3.118858
4.417359 -9.534759 9.547884
4.342921 -8.523565 8.516406
-1.337436 3.898923 -4.430092
4.529178 -9.292837 7.920698
-0.474689 0.237743 -0.449095
2.026867 -5.748120 7.982112
4.329916 -8.594891 9.365727
-0.321642 1.186794 -1.640867
4.673191 -9.087209 10.066668
0.001277 -1.822598 1.506893
0.152010 0.008243 0.507957
2.506764 -5.099995 5.689503
1.973519 -10.423016 13.186975
1.849171 -5.761432 8.768765
-1.151822 -0.102707 -0.539929
1.526893 -4.763595 5.714104
0.715833 -0.807652 0.075020
-2.069207 2.104051 -2.238486
2.265534 -11.107387 12.413892
-0.321742 -0.713288 0.813358
0.024468 -0.657206 0.561229
3.483449 -6.540095 7.538734
6.652689 -15.583973 17.175809
1.201578 1.007239 -0.168852
-1.201578 -1.007239 0.168852
0.918103 0.696775 2.310431
0.511334 -0.415948 0.314976
-0.553412 0.213068 0.698001
4.450941 -9.138732 9.367960
3.214620 -8.077493 10.102456
1.382763 -3.364530 3.484987
-0.215734 0.410221 -0.498909
-0.289264 0.850219 1.150970
1.508146 -7.137613 8.961192
0.150806 -0.526216 0.858457
-0.410371 0.612612 -0.366936
1.986681 -7.472008 8.990388
2.458325 -11.868971 13.828266
0.494498 -0.165697 0.274201
1.308014 -2.556257 3.768364
2.200214 -7.119979 8.296098
0.421143 0.740565 -1.027032
2.820748 -6.867210 9.773398
0.809567 -2.817540 0.935257
1.728176 -7.472734 8.479941
0.220037 -1.883729 1.892895
-0.241602 0.380748 -0.645960
2.762208 -9.238292 10.412729
2.842886 -9.244995 12.266460
1.338608 -4.197789 7.311226
1.546179 -6.928122 8.797080
3.328990 -11.611935 13.251316
1.499216 -3.729884 3.713129
4.884021 -7.791845 9.791869
2.574071 -9.748262 12.397685
2.562341 -3.827438 4.626536
-1.026423 3.080691 -3.624429
1.931150 -9.521248 10.485982
-1.327254 1.145231 -2.208337
0.306115 -0.613346 3.478114
1.426145 -5.722783 5.663388
-0.781968 1.362435 -1.389098
1.670688 -4.520379 3.867395
-0.221743 0.539869 -0.589684
6.894719 -13.744086 14.154696
0.399092 0.250909 -0.005232
4.341982 -11.944366 12.404129
1.084545 -3.889500 4.840287
5.951414 -16.328983 16.211447
7.150093 -15.904026 17.749824
3.452400 -8.626555 8.265699
1.463335 -1.780513 1.061638
0.907919 0.501501 -0.105388
1.828933 -0.261363 0.640991
2.842178 -5.148305 3.828457
5.642717 -10.323000 10.568945
3.127139 -7.110795 7.672742
-1.062501 4.613989 -3.668702
2.807004 -10.407500 12.140276
0.156763 -3.716326 3.758410
-0.247799 -1.890499 2.438767
1.698304 -8.020946 10.413877
1.648553 -7.776202 8.386082
0.849621 -2.956135 3.394348
2.116430 -7.733513 9.212601
0.403716 -2.695243 2.737333
-1.830735 3.724325 -3.812722
0.095316 -0.283217 0.506611
6.364044 -16.318202 18.132705
5.457957 -13.140611 14.003125
1.231000 -3.637742 3.520340
-0.195489 1.372496 -1.071124
0.785132 -5.624611 5.997531
0.534043 -4.188629 5.182020
1.819215 -5.197402 6.556549
2.164936 -4.590508 4.448252
2.206324 -9.312671 9.066272
0.468054 -0.608766 2.025675
4.305431 -11.260173 11.719221
-0.994222 2.265950 -2.330770
-0.171477 0.455097 -0.305922
0.820050 -1.132340 1.382910
-0.213391 -0.296146 -1.116572
0.523973 -1.627738 2.768513
0.768313 -2.446913 2.336984
3.282157 -8.300625 8.339060
3.021301 -7.476691 7.679752
0.484726 -0.949420 0.841138
-0.195841 0.284769 -0.536284
0.918766 -2.209790 1.975805
1.097999 -3.552617 3.684074
-0.135329 1.343054 -2.220296
0.471689 -1.245270 0.502366
4.562227 -12.038327 11.799997
-0.150504 -0.183627 -0.647170
3.772476 -12.107483 11.650045
-0.553627 -0.291844 -0.248026
-1.477828 3.285610 -3.703491
2.129172 -5.846644 6.085896
0.137174 -0.209841 0.399042
-1.502274 3.209968 -3.098658
2.496544 -5.010483 5.461177
0.286834 -1.428330 1.660127
0.372404 -1.850992 2.994830
-1.170793 5.828683 -5.770873
3.244950 -9.186089 9.905888
-0.103554 0.144447 -0.202604
2.024215 -8.057121 9.538923
0.727214 -2.038925 3.041817
-0.490017 1.521249 -2.038885
-0.259900 2.086173 -3.899287
1.595923 -0.400497 -0.183622
-0.294699 -1.084651 1.109831
5.201916 -15.553938 15.745653
0.185929 -0.295103 0.374574
0.347691 -1.145196 0.806126
-0.693173 2.549279 -2.871306
-0.975570 2.247084 -2.071864
3.297317 -13.500013 15.500337
4.740892 -17.047179 18.978886
1.776876 -8.493706 10.063473
2.852680 -12.528259 14.091139
2.173834 -8.929347 10.364712
2.758464 -11.493171 13.084873
2.015572 -7.241764 8.039304
3.269032 -13.496376 15.573730
2.651333 -11.741584 13.787405
0.534582 -1.216071 0.782101
1.089578 -3.645396 4.113120
-0.446939 -0.109470 -0.368574
-0.088701 0.140749 0.080652
1.088687 -3.975470 4.609031
2.207781 -7.741669 9.245512
-0.317679 1.285400 -0.773067
-0.066226 -2.159949 3.035159
0.007212 0.598194 -0.483910
0.395593 -0.563904 0.700799
0.620807 -0.271628 0.383953
0.167221 -1.151969 1.140409
1.456109 -0.273323 0.910065
-1.268081 4.325689 -4.931983
1.932676 -8.365685 9.764161
0.058312 0.397420 -0.430866
4.001104 -8.490894 8.449648
1.422289 -8.148499 9.370177
-0.705311 -0.359466 0.114844
0.388227 -1.933791 2.546961
0.304361 -0.833752 0.708548
-1.560090 -0.196136 1.177386
1.466248 -7.877794 8.755040
1.516498 -12.994091 13.175027
2.548251 -9.549768 8.393865
0.282550 -3.033187 3.463279
-0.131358 0.753984 -1.480067
0.906822 -3.888790 4.711267
-0.148679 -1.093373 0.815059
2.163184 -8.922463 10.380834
1.667266 -4.998789 5.516933
0.436225 -2.698274 2.985333
1.671225 -8.013370 9.557562
-0.237307 1.135978 -1.398465
0.310702 0.415211 0.440170
0.300499 -0.463145 0.494735
0.290312 -0.652231 1.031668
2.914581 -8.391958 10.768267
1.990716 -8.625397 9.849029
-0.073166 -0.028744 -0.145594
2.138498 -7.195872 8.651696
0.008410 -0.013085 0.040874
-0.112486 0.045688 -0.246416
2.140016 -8.663185 9.924262
-0.543219 3.952635 -4.135539
2.244924 -7.905668 9.296460
-0.403676 1.812153 -2.131491
0.694922 -2.416670 3.372315
2.633450 -12.723849 14.377700
1.684441 -7.020951 8.029355
1.546196 -8.077987 7.959474
0.318190 -2.216996 1.787584
3.376098 -10.782506 10.844776
0.240139 -1.372740 1.173240
-0.142306 0.309843 -0.195197
0.677018 -1.543868 1.484187
1.629789 -1.877442 1.261220
0.206715 -0.026769 2.690566
-0.500932 -1.990788 1.133967
1.311811 -4.711512 4.572822
-0.184835 -2.049298 2.272678
1.545725 -3.443289 3.277336
-1.130269 -0.109941 0.301034
2.509944 -1.825832 2.241919
1.180952 -4.631242 4.783804
-0.595688 3.316581 -3.221199
1.421723 -3.436264 3.771420
2.902395 -7.299751 7.430626
0.642083 -0.751824 1.581346
0.275407 -0.032961 0.102617
2.836798 -7.539871 8.086791
1.517979 -3.972316 4.534193
-1.364367 3.378746 -3.534149
2.064887 -3.535199 3.800589
1.147844 -2.790879 3.232896
-0.359790 0.581999 -0.661939
0.815058 -1.486258 1.620571
0.795676 -2.546649 2.699231
3.024328 -7.551737 7.334200
3.930608 -8.539682 9.177750
-0.180686 0.823172 -0.460880
1.703795 -4.023373 3.923742
-0.688252 1.745560 -1.612538
-0.132308 0.487326 -0.376043
0.682110 -1.104797 0.917310
0.458300 -1.712999 2.644183
0.754125 -1.916961 1.786706
0.114631 -1.287506 1.001241
2.561935 -8.742614 9.855899
-0.007915 -0.401294 0.546576
0.603792 -1.140570 1.051997
-0.205740 -2.173042 1.030676
0.233898 -0.619205 0.641740
4.410755 -11.590263 11.135658
3.228671 -8.322261 8.358693
-0.667507 1.368067 -1.658516
2.787997 -7.356618 7.657255
4.335930 -12.031469 12.683073
1.176723 -3.359136 3.175802
-0.105624 0.258859 -0.282977
-1.253090 3.192256 -3.425775
4.747149 -8.015722 8.862392
1.413342 -2.997929 2.999457
3.826417 -7.791770 6.162395
-0.260778 2.800435 -2.621230
-0.129368 -2.853566 2.628089
0.331857 -0.764934 0.675852
3.550711 -7.400139 6.407524
3.975576 -6.076070 5.649315
1.074246 -2.025742 1.674410
0.316115 -3.722220 3.014821
2.275103 -4.650119 3.707905
3.512390 -8.166636 6.825883
0.476141 -0.600976 0.770367
0.361235 -1.110638 0.799252
6.305124 -10.564776 14.016313
6.809635 -11.781239 14.261968
2.730416 -10.266241 10.575303
3.721469 -11.461337 12.431852
