63.912266 -129.603333 126.469332
31.449734 -119.273666 138.666331
0.109402 -0.170803 0.247451
31.138967 -118.961667 139.099335
32.741534 -114.500000 140.495000
32.822699 -114.030334 141.148671
0.231356 -0.802522 1.007016
32.925067 -115.121333 140.332667
33.241899 -115.360667 140.417338
28.804733 -115.602000 148.258001
31.786800 -116.422666 146.216995
31.808533 -116.556999 146.033666
15.809933 -125.673332 151.496999
15.720033 -125.549998 151.179331
16.225833 -125.842333 150.966334
0.011663 -0.058489 0.095255
-0.029029 0.220506 -0.255788
-0.076110 0.726009 -0.746301
15.602667 -126.417666 150.937663
16.386767 -125.285998 148.292999
16.590900 -125.242332 148.509669
16.143033 -125.247999 148.478663
16.347166 -125.204333 148.695333
16.201100 -124.560666 148.990005
-0.084195 -0.316783 0.229464
0.217727 -1.539896 1.855515
17.899300 -127.847666 149.662664
17.870733 -127.803332 150.238663
17.603600 -128.102333 150.231333
0.094405 -0.645965 0.738896
0.032225 -0.147163 0.048437
-0.072703 0.319882 -0.240326
61.062800 -135.255666 118.088999
63.503433 -134.949997 115.331334
63.374001 -135.158000 115.199999
-0.178480 0.313350 -0.667103
-0.002390 -0.504736 0.429846
63.552601 -135.212997 114.879667
63.700133 -135.119995 114.778333
62.927967 -135.092000 116.116333
62.791967 -135.289337 116.042000
-0.229349 0.324451 -0.104159
0.072524 -0.223786 0.270244
0.070924 0.108739 0.221438
35.865634 -132.631002 136.951665
35.867934 -132.808339 136.781001
36.968067 -134.742335 138.033335
36.765367 -134.834000 137.387665
0.428466 -1.310839 1.323578
0.070343 0.158637 -0.148969
36.963367 -134.680003 137.287994
-0.024966 0.054347 -0.071772
0.108536 -0.422689 0.556978
-0.046625 0.015141 -0.000120
25.151466 -112.772667 142.516668
24.577833 -113.042333 142.649333
24.957766 -113.018667 142.260335
-0.207067 0.855029 -1.047873
25.957400 -113.029999 141.931000
0.284824 -1.546783 2.180348
23.753400 -116.112666 147.435003
0.048854 0.247343 -0.285170
0.054757 -0.284018 0.375754
-0.129987 0.657680 -0.844849
22.203733 -113.760335 144.350998
22.218533 -114.221334 144.917664
21.969767 -114.301333 144.702662
21.834934 -114.130000 144.370997
-0.110380 0.651272 -0.823167
-0.038959 0.065100 -0.122983
0.445291 -1.549352 1.719557
29.180400 -122.395335 139.844666
0.118207 -0.591174 0.698859
-0.093096 0.137616 -0.033311
0.002414 -0.008259 0.032332
-0.156997 0.280294 -0.370805
31.611767 -119.551666 138.847000
31.337767 -119.727333 138.704000
39.533801 -130.181997 136.102000
39.506734 -130.091665 136.277334
0.163629 -0.434148 0.476339
38.943799 -134.811000 138.511668
41.977300 -132.946665 138.670329
41.840800 -133.482000 138.969004
41.881466 -132.972331 138.890666
33.696700 -133.582662 137.909332
33.454433 -134.288666 138.072998
25.209900 -137.262665 142.881002
-0.093331 0.372986 -0.336119
0.108754 -0.360883 0.287266
-0.096385 0.659295 -0.657822
21.967766 -138.047999 142.112666
22.052367 -137.512665 142.450002
0.080664 -0.441403 0.453020
22.052833 -137.471334 141.940664
22.531600 -136.943334 141.831665
-0.038502 0.527014 -0.007573
22.643899 -136.542669 141.838669
21.476266 -139.018997 142.757670
21.975199 -139.089666 142.677338
-0.084150 0.325983 -0.370530
21.742733 -139.669998 142.412333
21.631767 -139.982000 143.246668
22.109833 -140.001663 142.599665
0.523709 -1.894830 1.877144
62.330200 -135.850337 116.419668
62.441034 -135.698003 116.295001
-0.254736 0.692178 -0.130795
1.093628 -1.179927 1.231193
1.755564 -3.649450 2.965565
62.447600 -136.075668 116.195333
62.464433 -136.313670 116.231333
0.456873 -1.155487 1.191356
0.781047 -1.798997 1.562547
0.321185 -0.927222 0.598110
63.320100 -129.481003 125.831665
63.553767 -129.748006 125.964999
0.288985 -0.549636 0.549997
65.154566 -125.599665 127.001999
66.274234 -116.746999 143.843333
0.644898 -0.578800 0.930040
0.383517 -1.049710 1.196787
60.161167 -136.186671 119.414001
-0.003088 0.040458 -0.055836
0.102160 -0.182862 0.245364
61.014366 -135.933334 119.340668
-0.017060 0.040323 -0.044710
0.883415 -1.759113 1.516196
62.386733 -134.991333 118.041000
61.828632 -134.902003 117.781331
-0.096034 0.324079 -0.232513
0.453854 -0.976330 0.806950
62.213767 -136.854004 116.984001
65.055766 -128.856339 124.709999
0.164678 -0.379302 0.365434
0.343412 -2.196327 2.363310
19.755000 -139.618001 143.201670
62.682733 -113.544998 134.964335
62.457366 -113.307332 134.730667
0.384861 -0.912047 0.930004
0.574151 -0.766940 1.115571
0.133503 -0.180272 0.248911
0.294019 -0.503302 0.539218
0.073945 -0.121554 0.129230
60.865734 -113.732666 133.468669
0.195022 -0.370656 0.426287
60.979434 -114.697334 133.659999
60.430099 -114.708666 133.736333
61.163100 -134.510671 120.931666
61.168301 -134.675003 120.891998
-0.089579 0.335715 -0.172012
0.145636 -0.186817 0.225475
31.215800 -104.496999 142.454000
0.011730 0.107910 -0.079486
31.503800 -104.772334 142.368001
31.529600 -104.610667 142.643667
30.513467 -104.722000 142.385330
30.640100 -104.747332 142.524333
0.026690 -0.390854 0.488755
30.799967 -105.108665 142.403000
0.031020 0.006427 0.059468
-0.069733 0.184741 -0.342617
23.718567 -136.865000 148.938670
24.298000 -137.028997 149.054006
18.351833 -130.887665 155.018000
0.184794 -2.465873 2.682919
17.595200 -129.565002 156.147995
16.996000 -128.939000 156.305664
17.451033 -129.278000 155.797663
0.050148 -0.292456 0.395123
21.033200 -131.360001 155.501999
-0.006527 0.092884 -0.106052
21.223967 -130.892334 155.460668
0.164974 -0.952367 1.022614
-0.021621 -0.224460 0.273599
19.022033 -128.794668 158.638667
-0.110632 0.316998 -0.635375
0.305406 -1.976816 2.623376
0.251659 -1.456841 1.754418
0.137525 -0.975119 1.196788
26.083033 -127.012665 156.401667
25.824033 -126.928665 156.608002
26.080167 -127.388331 156.651001
0.167549 -0.799762 0.883701
-0.050629 0.341673 -0.457526
26.086000 -127.102999 157.643331
20.402567 -131.601003 156.350001
20.374767 -131.540334 156.189997
-0.011870 0.325831 -0.203677
19.627634 -131.661667 157.136332
20.056100 -131.170670 155.656331
19.916267 -131.069667 155.799332
20.297267 -131.259333 155.872330
0.062908 1.333327 -1.176722
-0.211027 -0.062239 0.006192
0.437068 -2.196354 2.724986
-0.095973 0.284835 -0.518938
0.129213 -1.150705 1.543630
19.582167 -131.006002 155.690999
0.296265 -1.478905 2.019763
19.611500 -131.062668 155.366669
-0.024831 0.170747 0.009416
0.027856 -0.333494 0.376583
-0.200462 0.083574 -0.131809
18.990867 -130.879333 154.346003
19.072866 -130.563004 154.875000
23.429334 -125.541331 161.032333
23.598234 -125.480331 160.861003
23.459134 -125.104998 160.883331
23.628033 -125.043999 160.712001
20.157434 -131.907333 157.469996
0.281345 -2.281347 2.729417
0.129995 -0.952780 1.095452
23.913667 -129.375000 155.804331
24.665433 -128.823339 155.224665
0.178480 -0.969839 1.175559
-0.092528 0.322929 -0.448645
-0.274168 0.489714 -0.668389
25.592733 -127.804667 155.459000
25.806634 -127.681999 156.334000
0.340266 -1.681501 2.120780
24.773500 -123.333666 154.222997
24.691200 -122.720334 154.667333
25.311333 -123.371335 154.096329
25.456800 -123.480667 154.362330
0.486646 -2.554491 3.019771
0.006160 -0.791757 0.651773
0.145932 0.498061 -0.438674
0.037780 -0.433918 0.483133
16.179701 -123.245333 149.383667
16.438334 -123.107333 149.619670
24.628667 -109.327667 145.089671
0.503348 -0.547886 1.228842
24.304267 -109.636332 144.314331
24.341433 -109.650332 144.736669
24.536034 -109.699666 144.733332
16.264000 -126.941666 151.252665
0.306008 -2.449680 2.906906
16.336334 -127.695333 150.828664
0.008109 -0.048588 0.038019
21.251134 -136.513997 143.746999
21.406967 -136.514664 143.279002
21.162634 -136.498332 143.357005
-0.119997 0.768098 -0.944938
0.221886 -0.974808 0.981712
0.424701 -1.634662 1.730895
0.164892 -1.983702 2.026834
20.902800 -137.252004 143.254669
-0.191742 1.164634 -1.245583
0.214324 -0.884745 0.800481
0.154432 -0.596078 0.743901
0.140259 -0.829647 0.872495
19.713133 -138.395996 146.448334
0.078817 -0.358799 0.425984
0.178624 -0.964923 1.035583
20.181167 -138.576670 146.289998
19.827000 -138.796331 146.641337
-0.013074 -0.790494 0.515598
-0.028701 0.050586 -0.077982
0.114914 -0.645061 0.873297
-0.112360 0.887978 -1.111037
19.522100 -131.274999 159.938665
19.126200 -131.409337 159.366002
19.473167 -131.588338 159.747335
-0.022860 0.050539 -0.048782
-0.003998 -0.165388 0.303664
19.795167 -131.153336 160.864334
0.118620 -0.888631 1.041532
-0.083334 0.576766 -0.751427
16.552267 -127.250666 153.061000
16.404401 -127.116000 153.045334
0.053980 0.530921 -0.393152
16.817933 -127.626666 154.641327
-0.003740 -0.449021 0.424493
-0.303746 -0.100050 0.498231
0.514503 -0.221412 -0.107159
16.956266 -127.620000 154.151667
17.479700 -127.702998 154.982330
17.313700 -127.581332 154.952993
-0.042396 0.042050 -0.123520
19.216400 -130.117330 152.788996
0.343362 -1.726553 2.093915
0.042605 -0.440888 0.518924
19.262433 -129.613663 151.865000
0.185791 -0.905871 1.369680
-0.179773 0.383294 -0.464987
0.246043 -0.739632 0.707614
0.317497 -2.050284 2.352860
17.734067 -128.440002 156.010666
-0.051752 0.137615 -0.218821
-0.153692 0.678525 -0.681946
-0.029391 0.028095 -0.079958
17.919467 -128.689667 156.490000
17.976800 -127.613668 155.858002
-0.075096 0.588615 -0.877250
-0.172799 0.316962 -0.277340
-0.087387 0.347593 -0.467238
0.189700 -1.869791 2.211677
19.114667 -128.808665 151.182002
19.014400 -129.068665 151.008998
-0.100444 0.856006 -0.951497
19.800800 -128.738337 149.704005
19.886533 -128.646667 149.821671
-0.088187 1.214040 -1.409026
18.872601 -128.730331 150.459666
19.131067 -128.609334 150.710332
18.585700 -128.478999 150.490662
18.414834 -128.502996 150.373332
18.783801 -127.785334 149.882996
-0.167349 0.588793 -0.771857
0.030337 0.252113 -0.252970
0.252908 -1.086401 0.891117
0.186653 -0.874685 1.377955
19.727966 -130.039668 153.712001
16.537634 -122.651334 149.059331
16.623100 -122.532000 148.893667
-0.107561 0.269683 -0.472786
0.401136 -1.367044 1.389965
0.159048 -0.995514 1.016746
21.831500 -136.228668 142.258336
0.051611 -0.224497 0.192856
21.498867 -135.580999 143.491669
0.134450 -0.069839 0.269330
0.143816 -0.214907 0.387227
1.403320 -2.381596 3.017753
63.176200 -113.538666 142.308665
0.257704 -0.544839 0.782372
1.016692 -2.384777 2.683339
65.241567 -114.865667 145.407333
-0.655658 1.116896 -1.439127
64.947299 -114.670667 145.163330
0.473769 -0.826777 1.020745
66.741165 -115.230667 145.879328
66.415965 -115.253001 146.096664
0.320735 -0.694118 0.918495
65.956365 -114.982999 146.657333
0.414343 -1.107839 1.446887
0.148505 -0.294150 0.257235
-0.042535 0.082157 -0.165305
65.352267 -114.592333 145.843333
65.404099 -114.759666 146.327001
65.143565 -114.761332 146.441671
0.006834 -0.004415 0.065683
61.734633 -111.722003 136.553670
61.052834 -112.149333 136.413335
61.887100 -111.783335 136.339666
0.236169 -0.566907 0.614883
62.838099 -112.987333 140.850998
0.171660 -0.310658 0.351058
62.326167 -112.783335 141.172333
62.495866 -112.861333 140.867666
62.060666 -112.749001 140.450999
-0.171101 0.312242 -0.401500
62.856867 -113.495003 141.087001
-0.058102 0.118980 -0.159725
62.430667 -113.363335 140.793666
0.298563 -0.527075 0.634482
61.586567 -113.584333 142.362330
-0.086256 -0.030907 -0.016028
-0.366024 0.676890 -0.924458
0.781926 -1.306580 1.585000
57.299566 -111.761665 137.278005
57.273132 -111.586667 137.248337
56.618234 -111.451332 136.170334
56.369301 -111.483665 136.431666
0.617770 -0.981651 1.199181
0.241932 -0.268441 0.265769
-0.081154 0.202665 -0.300316
54.364933 -112.777667 139.046672
54.955467 -112.365997 139.211670
54.865701 -112.725665 139.863668
54.949401 -112.555664 139.710668
54.978533 -112.454664 139.518667
61.970333 -115.852333 135.726669
60.810899 -115.901001 136.918335
59.662800 -112.041334 138.303335
0.140703 -0.244221 0.329215
59.753201 -115.466331 132.815664
0.074618 -0.218852 0.161865
60.089367 -115.315666 133.280329
60.844767 -112.348668 135.351334
61.108667 -112.339335 135.524999
61.364600 -113.773666 134.162999
0.468415 -0.985258 1.696438
61.850534 -113.068667 135.062002
-0.403735 0.703169 -0.617199
-0.100689 0.182170 -0.205773
0.075237 -0.153221 0.175655
64.708766 -125.969332 128.558662
0.094594 -0.004386 -0.093258
-0.459791 1.104542 -0.936003
0.942945 -1.728617 1.618249
65.095797 -126.300336 129.124334
0.760581 -1.654559 1.702305
0.335498 -0.552206 0.487319
65.013832 -125.660665 127.404666
0.359641 -0.455880 0.424154
-0.010866 0.329669 -0.196877
58.032667 -111.723335 131.909999
-0.483634 0.656557 -1.096081
57.690968 -110.840668 133.254664
0.228824 -0.401399 0.379264
0.556667 -0.050188 0.469876
-0.175085 -0.835069 0.464537
0.516297 -0.197247 0.272600
-0.238185 -0.450272 0.559999
58.076668 -111.173668 132.451670
58.377934 -111.557002 132.824997
0.316451 -0.655390 0.646676
59.364435 -111.616336 133.252670
-0.172684 0.226776 -0.301927
0.265425 -0.537557 0.591811
58.554101 -111.210002 133.313334
58.460101 -111.091001 132.886002
58.567267 -110.996002 133.527334
58.794200 -110.956001 133.931335
0.144010 -0.428872 0.472233
-0.088986 0.176020 -0.227073
61.792866 -111.707001 137.087667
0.228693 -0.419132 0.524261
-0.080718 0.139173 -0.168599
61.961901 -112.430336 136.847336
1.683170 -2.720003 3.004963
1.218879 -2.182697 2.090328
-0.168675 0.429672 -0.420918
0.298858 -0.532578 0.516965
66.939334 -127.017001 126.863668
68.003301 -127.655334 124.749667
-1.156391 2.184916 -2.083449
0.212975 -0.400785 0.394800
66.136798 -128.930003 124.665334
1.037922 -2.119669 2.038923
0.230834 -0.428448 0.408076
66.197266 -129.304667 124.287003
63.292300 -114.419665 144.922333
63.167399 -114.601667 144.878001
-0.038832 0.333008 -0.024818
0.474688 -0.830381 0.972949
-0.139796 0.176890 -0.196624
36.639066 -103.984332 147.317337
36.422733 -103.687998 147.177668
0.283078 -0.572030 0.882299
36.976700 -105.031001 147.920329
0.328542 -0.455720 1.115066
0.074648 -0.885367 0.755030
-0.269582 0.559841 -0.798207
0.154319 -0.679098 0.799738
0.223729 0.010675 0.494915
0.186532 -0.678918 0.986686
-0.110375 0.303404 -0.340057
36.050434 -104.737333 146.544332
-0.320778 0.723268 -1.114645
-0.054051 0.130851 -0.534438
0.617588 -1.469830 2.181196
0.210868 -0.366065 0.486623
0.234074 -0.126142 0.136635
67.833300 -119.455332 148.544332
0.878948 -0.973253 1.483218
68.544467 -119.480334 149.174998
68.286535 -119.282333 148.277334
69.060066 -119.272667 148.729335
69.317233 -119.034668 148.869003
33.842932 -101.781001 148.972000
33.628766 -102.011998 149.105998
0.295152 -1.386577 1.803322
0.292016 -0.776784 1.202675
33.527167 -101.600667 148.040665
34.435734 -101.549334 148.714335
0.160549 -1.362583 1.809782
34.198268 -102.184001 148.531336
34.328667 -102.197667 148.751668
0.700101 -2.017063 3.059928
0.001556 -0.003349 0.010077
33.573900 -102.068334 147.903336
0.236987 -0.727819 1.065976
35.164834 -102.305333 147.698334
35.230067 -102.177333 147.534002
-0.132437 0.388484 -0.552515
35.856101 -102.524000 147.837997
35.650300 -102.168999 147.620336
0.183148 -0.491654 0.730333
0.196198 -0.419036 0.534142
-0.043551 0.018612 0.019656
0.483849 -1.381291 2.005287
35.696234 -103.037999 147.028671
-0.355953 1.002891 -1.480981
34.444534 -101.538335 148.468002
0.057103 -0.025170 0.106831
34.227301 -101.538335 148.326335
34.495300 -101.542999 148.080668
34.686166 -101.598000 147.896001
34.204234 -101.527000 148.084335
35.576866 -111.517001 146.276332
35.887199 -110.962001 145.528666
-0.042510 0.149091 -0.191352
0.143828 -0.760105 1.039631
0.128240 -0.351717 0.509895
36.715366 -111.006002 145.835668
36.230333 -110.946335 146.116664
32.742767 -123.423665 149.657333
31.822566 -110.048332 142.721334
31.984399 -110.661667 143.044001
32.329267 -110.067665 142.977331
-0.203609 0.568585 -0.758878
-0.051776 -0.214333 0.391637
0.071617 -0.085221 0.152302
32.400400 -110.928001 142.598338
-0.326946 0.284565 -0.429512
31.622867 -113.135000 141.339330
31.419900 -113.098999 141.582662
32.330901 -113.385668 141.010335
0.670948 -2.504031 3.292754
-0.207555 0.572604 -0.674908
0.506237 -1.007580 1.133075
-0.038318 -0.508431 0.892505
32.093367 -113.066999 141.539668
0.057080 -0.440873 0.470877
31.960201 -113.253334 141.200999
0.513309 -1.507887 1.671392
-0.164539 0.617973 -0.754044
0.063065 -0.137099 0.196566
0.051993 -0.158473 0.222354
0.492378 -1.085389 0.876346
0.072836 0.218460 0.006405
0.246650 -0.755369 1.055208
29.052701 -107.818667 141.870667
32.619733 -119.302999 137.963003
32.422367 -119.106000 138.114670
24.275200 -129.742666 164.665665
0.178150 -0.833783 1.214967
20.907500 -130.747665 162.178665
20.834600 -130.669998 162.120000
20.524534 -130.613002 161.753667
20.706333 -130.736333 161.748998
20.428300 -130.619334 161.646662
24.637533 -125.216667 162.200663
0.028712 -0.131087 0.173643
32.476832 -105.445333 142.791331
32.291100 -105.033333 142.391001
31.878766 -104.973000 142.401001
0.290397 -1.036109 1.282117
27.524300 -115.618001 148.075002
-0.057434 -0.047960 -0.015683
-0.111021 -0.174339 0.121214
0.000000 0.000000 0.000000
24.308400 -112.791334 147.880335
0.280384 -1.465539 1.807805
23.929634 -113.399000 147.631002
-0.054119 0.460201 -0.518044
-0.072994 0.462816 -0.629106
23.514601 -113.711332 147.631668
-0.020430 0.506094 -0.556762
34.568667 -102.691332 151.016668
-0.068818 0.557189 -0.692198
0.000702 -0.021853 0.031710
27.090533 -129.736333 162.514664
27.231634 -129.493332 162.324000
0.031550 -0.554066 1.036780
0.138274 -0.430934 0.134641
0.365268 -0.620381 0.167036
24.009500 -111.120336 145.608668
-0.258887 -0.120166 0.793198
-0.020196 -0.619624 0.942556
0.216060 -0.735219 0.637632
-0.138205 1.225992 -1.464310
17.319700 -122.671336 148.974665
16.868567 -122.442334 149.384664
17.029167 -122.567001 149.814336
17.145667 -122.298668 149.625666
-0.061111 0.350039 -0.448067
17.501767 -122.660667 149.893000
0.011473 -0.060719 0.159118
17.180766 -122.681999 150.159002
16.908066 -123.407000 149.637004
0.093416 -0.414548 0.553475
-0.081904 -0.022692 -0.038726
32.775734 -119.854665 147.356003
0.163754 -0.358256 0.681149
0.099912 -0.311052 0.488460
24.786033 -116.437335 147.643672
24.197266 -122.295336 152.566004
24.513800 -122.278669 152.502670
0.085367 -0.433686 0.513243
16.727967 -124.345334 147.853333
0.011237 -0.111139 0.102963
16.570566 -123.902334 148.785670
16.912933 -123.220668 148.804331
17.132200 -122.984667 148.506999
27.118600 -107.722666 146.369329
-0.082108 0.098053 -0.239653
26.955633 -108.076998 146.773661
0.353858 -1.463722 1.975054
0.226210 -0.859568 1.109396
26.425500 -108.877998 147.152664
26.531600 -108.966331 147.067998
26.680300 -108.965332 147.566996
0.107764 -0.676837 0.836014
18.203500 -121.690336 148.390004
-0.150402 -0.988876 0.870748
0.238971 -1.291562 1.758426
17.150400 -124.627001 148.076335
16.932067 -124.769333 148.022334
16.870966 -124.798002 148.230001
-0.090950 0.288755 -0.321967
-0.182575 0.860563 -1.137334
19.943034 -121.839668 149.492330
20.371134 -121.567668 150.366333
0.677324 -3.331598 4.038037
20.940200 -122.807332 148.666000
0.049800 -0.745216 1.086610
20.844734 -129.819667 150.537333
20.358800 -129.698669 150.682999
0.291919 -2.053201 2.405321
21.260799 -130.181335 152.017329
20.821733 -129.557668 152.827001
0.230914 -1.263788 1.291956
-0.023941 0.309516 -0.499331
21.952766 -137.443334 148.344666
21.807866 -137.457667 148.148997
21.521200 -137.340668 147.914332
21.266100 -137.553335 147.673335
21.328967 -137.552333 148.292002
0.139954 -1.185298 1.153240
0.052617 0.032359 0.079654
0.100509 -0.477212 0.584560
0.037713 -0.184992 0.138495
0.403673 -2.317791 2.946636
20.727400 -121.491000 150.885666
20.082667 -121.627335 151.225001
20.264133 -121.682668 151.490000
-0.045077 -0.928971 1.159673
20.926767 -121.578000 151.353002
19.022134 -121.058334 149.606003
0.210716 -1.653369 2.013977
0.211019 -1.052642 1.240511
-0.198048 0.521991 -0.584021
19.268000 -121.465668 150.068995
19.490634 -120.979335 150.008001
0.050253 -0.417406 0.483859
-0.181252 0.631994 -0.809282
0.066394 -0.324928 0.472853
23.797967 -115.800667 147.028666
23.513400 -115.969999 147.077001
0.166293 -0.611056 0.855833
23.262833 -115.902000 146.813334
22.936666 -115.904666 146.604335
22.801200 -115.291334 147.409668
0.040221 0.133436 -0.022054
-0.062389 -0.097961 -0.027125
-0.015087 0.082369 -0.002940
23.301500 -115.495000 146.756332
-0.219531 1.321597 -1.660849
0.453237 -1.657564 2.382266
23.384033 -115.304001 147.296331
0.447286 -1.314668 1.609911
23.233200 -115.002668 147.271998
-0.032997 -0.017052 0.021454
23.498867 -114.800331 147.501333
-0.138119 0.097063 -0.393130
0.056892 0.244531 -0.040560
21.526900 -121.346001 152.370000
21.425166 -121.164001 152.730001
0.037880 -0.830194 0.757724
0.211702 -0.712744 1.147410
-0.069377 0.724617 -0.780602
22.306200 -121.383334 153.498001
-0.034231 -0.727446 0.101813
0.277322 0.146064 0.126084
-0.083618 0.548372 -0.664694
21.419033 -121.114334 153.401667
0.019464 0.155695 -0.043514
20.230633 -122.320999 152.998667
0.194351 -0.596395 0.904990
0.763180 -4.198270 5.305010
0.461964 -2.462673 3.248320
21.372800 -129.659332 151.803004
0.831298 -4.946381 5.880135
0.494681 -2.922324 3.124455
21.889667 -130.331665 152.326665
21.506966 -129.656998 152.386002
0.017849 -0.071150 0.117372
0.031582 -0.093566 0.148154
24.370867 -129.253001 154.741333
24.534733 -129.064672 155.030996
0.012719 -0.027300 0.033647
0.101348 -0.632940 0.911634
-0.028028 0.238248 -0.300107
-0.007251 0.145422 0.134619
-0.008743 -0.537681 0.385272
24.605800 -122.679670 152.614003
50.641000 -125.702665 144.518997
0.193610 -0.266861 0.240643
52.857333 -126.902334 145.984665
0.741019 -1.759203 2.032421
50.722233 -127.316999 145.787664
50.870266 -127.321332 145.662664
0.776070 -1.602836 1.925449
0.074968 -0.106574 0.183994
41.319967 -123.001333 135.470998
41.639666 -123.070000 135.301331
35.665534 -113.655668 146.907003
35.368533 -113.465001 146.971670
35.527266 -113.054001 146.843333
36.033300 -128.769663 153.742330
0.244690 -0.680935 0.788821
35.452333 -128.514333 153.644333
0.385825 -1.526070 1.974527
34.519533 -116.985001 147.207331
0.252857 -1.091602 1.095724
0.014807 -0.011754 0.000911
41.352667 -130.368668 135.465998
0.155708 -0.513685 0.528562
0.207720 -0.647691 0.548236
-0.021966 0.327127 -0.339579
-0.182633 0.427110 -0.478044
51.128966 -131.389669 144.079000
46.945133 -127.819667 142.209000
0.169519 -0.474591 0.513179
0.058035 -0.192001 0.151494
0.151042 -0.355844 0.263901
-0.120038 0.333528 -0.339785
48.613700 -134.838664 143.826335
-0.063284 0.056380 -0.117502
0.269271 -0.731920 0.857303
0.037931 -0.116184 0.124301
35.878400 -122.731667 137.168335
35.880700 -122.848000 136.995000
22.185500 -130.963999 163.449336
0.234389 -0.690326 1.246423
-0.077521 0.363181 -0.316635
24.203667 -131.790665 162.006332
24.070167 -131.476664 162.592000
23.978734 -131.497335 162.964335
23.815367 -131.421666 162.819000
0.159955 -0.603152 0.711649
25.500800 -130.912333 162.378001
0.141542 -1.352213 1.754364
-0.052061 -0.074209 -0.059116
23.052034 -131.760000 158.591665
30.144866 -138.492666 150.024002
0.223624 -0.994600 1.142102
32.239367 -137.479335 149.530996
-0.020534 0.322029 -0.394880
23.648266 -130.525335 164.588669
23.799333 -130.730667 164.354335
23.340833 -130.581004 164.364670
0.014530 0.119834 -0.056535
24.489533 -130.239995 164.346334
0.056303 -0.296832 0.391890
24.781433 -130.167999 164.472000
-0.000784 0.050609 -0.014006
25.926033 -130.124664 160.572001
26.083233 -129.748667 160.218002
-0.045329 0.142871 -0.195728
0.106261 -0.639226 0.812889
23.652334 -128.511332 163.766327
0.321659 -2.034890 2.542731
23.451001 -128.911336 163.896327
26.331667 -129.784002 163.761002
-0.178139 0.879661 -1.071895
0.011075 0.013697 0.024105
0.107614 -0.020900 0.169580
-0.108914 0.468066 -0.607011
-0.169161 0.525988 -0.833446
-0.100153 0.272781 -0.354112
0.204649 -2.396125 2.622672
25.296833 -129.299662 165.208003
-0.169944 0.688707 -0.846745
25.785633 -130.161997 163.852336
0.074998 -0.312481 0.285091
0.311610 -1.727055 2.090224
25.366933 -130.442001 163.521337
25.222567 -131.055333 163.355667
25.229567 -130.717005 164.389328
0.263379 -1.471996 1.939549
21.318100 -131.176005 161.898336
-0.061150 0.118288 0.152908
0.164463 -2.155031 2.635763
0.129340 -0.667211 0.860219
-0.123742 0.643248 -0.738975
22.031300 -131.582001 162.730662
0.139970 -0.491284 0.815378
0.091245 -0.478734 0.386834
18.172866 -130.947998 155.491669
0.051877 -0.427762 0.575709
18.141167 -130.074005 157.507996
18.187534 -130.604335 157.439331
18.078634 -130.977331 157.830668
-0.058710 0.513342 -0.797151
0.209141 -1.281411 1.474844
0.115463 0.024990 -0.304966
0.013471 0.090784 -0.374106
-0.180140 0.658045 -0.539370
25.190900 -128.230667 153.894333
25.320201 -129.057668 156.664668
24.590333 -129.354670 155.923665
25.093334 -129.360336 157.046666
24.967567 -129.167669 156.991333
25.240433 -129.005000 157.223663
24.544634 -128.789337 155.875331
24.460467 -129.211670 155.904999
-0.074924 0.675342 -0.815112
-0.088138 0.560727 -0.643054
25.467900 -128.372332 156.218002
24.905500 -129.006002 155.999334
0.203603 -1.067758 1.372469
0.008619 0.354073 -0.462701
0.018810 -0.348903 0.304584
24.902600 -128.903005 154.329000
0.114808 -0.663957 0.807970
26.511566 -125.584335 156.845998
35.279433 -129.019333 153.743001
35.257099 -128.752335 153.752335
0.360747 -0.866476 0.454137
-0.196667 -0.074735 -0.369853
25.592833 -128.450668 153.127335
0.190110 -0.841548 1.046506
25.664267 -127.776001 152.960337
37.945000 -135.128667 138.189000
0.372744 -0.757106 0.974785
0.080928 -0.525165 0.543444
0.192209 -0.536942 0.541939
-0.114081 0.395129 -0.405277
47.205334 -133.031662 134.087336
0.318270 -1.448691 1.556794
20.497967 -137.852666 146.689997
20.365433 -138.024668 146.487666
20.126000 -137.579330 146.492330
-0.001570 -0.182941 0.159586
-0.035440 0.428724 -0.416015
0.140810 0.652354 -0.135487
20.325967 -137.634664 146.931666
0.142482 -0.661545 0.809968
20.591667 -137.979665 147.030334
63.324866 -116.343000 147.750997
64.674166 -118.431000 148.517670
-0.209986 0.320354 -0.303624
0.919702 -1.788712 2.284096
65.360166 -118.928668 148.093669
65.576665 -118.950335 147.759669
65.828700 -118.926003 147.901001
0.317764 -0.373292 0.594083
-0.115824 -0.339429 0.441056
0.011827 -0.037316 0.054423
66.978834 -116.061666 146.982000
67.238767 -116.062332 147.196665
0.388823 -0.988844 1.014211
0.818493 -1.169800 1.570901
66.716799 -115.926666 147.069000
-0.177502 0.080476 -0.300408
67.390968 -116.894666 146.493332
0.271377 -0.438882 0.571397
67.507734 -117.478333 146.494670
-0.109927 0.128175 -0.143555
0.079828 -0.152698 0.050934
0.054221 -0.192722 0.054095
0.085068 -0.031383 0.213648
0.470240 -0.848454 1.053053
0.860076 -1.565954 2.035981
-0.224909 0.457603 -0.512770
-0.387125 0.418159 -0.605844
0.213475 -0.547108 0.910510
-0.090086 0.342831 -0.419101
51.013266 -125.086001 143.585668
-0.221275 0.259767 0.116564
0.243212 -0.250329 0.210214
-0.176976 -0.121957 -0.049472
-0.038199 -0.839504 1.036965
52.934032 -111.579333 129.067332
53.307334 -111.324333 129.306000
0.101651 -0.314002 0.184712
0.066992 0.019443 0.016157
51.886733 -111.416000 130.957001
0.277337 -0.598784 0.681120
51.809967 -113.919001 128.421672
-0.100919 0.198507 -0.405319
-0.082258 0.157691 -0.036547
51.506233 -113.130666 129.135997
0.048723 -0.093737 0.127571
57.388899 -115.983335 137.691666
0.270249 -0.260884 0.393640
59.021667 -116.901334 133.379333
-0.102619 0.028735 -0.130414
57.535300 -113.305331 129.063665
56.698034 -113.849668 128.376663
57.309199 -114.022331 128.870000
0.602053 -1.310550 1.483520
0.475307 -0.440228 0.896988
0.179629 -0.382371 0.458172
56.290267 -112.352331 129.038335
0.036552 -0.052650 0.162258
56.993734 -112.674334 128.778000
0.240301 -0.361077 0.621142
59.003232 -115.473668 130.836334
0.076623 -0.078368 0.120840
58.465300 -116.093333 130.834671
57.951266 -115.797668 130.899338
58.301099 -115.997002 131.120672
0.725866 -0.533679 0.728665
-0.214975 0.407572 -0.486304
59.163966 -114.491999 130.733668
58.789700 -114.420670 131.041997
0.352084 -0.719132 0.820858
58.924599 -113.936333 130.487335
1.054532 -2.515833 2.898260
53.550967 -113.097003 128.698664
0.327501 -0.748007 0.843057
0.309635 -0.208573 0.388024
52.816867 -112.760666 128.198334
0.159997 -0.075393 0.173131
0.047086 0.019727 0.032404
0.482401 -2.076208 2.539027
0.718135 -1.695077 1.861971
0.259767 -2.161292 2.531556
26.550600 -125.034668 152.046000
26.188400 -128.129003 152.427668
25.947167 -128.369003 152.378337
0.270441 -0.275251 0.172848
54.443100 -110.290001 133.178665
0.128665 -0.232280 0.319421
0.229312 -0.401272 0.588626
55.791700 -110.502335 131.451996
-0.045055 0.148625 -0.080876
55.693801 -110.087667 132.300669
0.916577 -1.661988 1.911834
0.663752 -1.343829 1.679923
55.225567 -109.939334 132.262339
-0.536017 0.973628 -1.056920
55.026800 -109.940666 131.863337
0.500390 -0.978314 1.476022
55.071434 -110.332334 132.678335
55.920233 -110.477333 131.847331
0.193658 -0.351922 0.542076
0.388272 -0.610112 0.611143
53.616734 -111.172663 131.291331
53.419134 -110.698667 131.257665
53.417634 -110.659002 130.931666
1.005703 -2.553035 2.815837
-0.602084 0.229709 -1.028562
0.737309 -0.567019 1.569800
33.061166 -109.269666 145.124669
-0.033034 0.097069 -0.129824
32.964766 -109.579333 144.644669
37.036334 -111.253334 145.804667
36.554900 -111.314334 145.413671
0.050253 -0.183342 0.269759
31.538767 -105.770999 142.224335
31.558334 -105.701332 142.391668
31.845800 -105.792999 142.296666
31.865367 -105.723333 142.463999
0.195096 -0.629777 0.892742
31.450100 -106.579666 142.280665
-0.036971 0.184563 -0.191269
34.019000 -112.422666 141.062332
0.315010 -1.226962 1.411623
34.347167 -112.829999 140.653330
-0.151897 0.408241 -0.480316
-0.004350 -0.204799 0.272200
-0.121467 0.355610 -0.427919
33.426000 -112.871666 140.980998
-0.163673 0.628274 -0.836154
0.363008 -1.034960 1.274287
33.566832 -112.994334 141.274002
33.437867 -113.545001 140.554331
33.180868 -113.373667 140.880000
29.025500 -107.109001 142.153005
0.074266 0.349866 -0.294319
0.472783 -0.806969 1.040979
-0.218684 0.097259 -0.005070
0.113504 -0.324591 0.057153
51.923932 -113.034668 128.988663
0.942509 -1.276055 1.691926
-0.131082 -0.133571 0.071977
-0.020740 0.715372 -0.899414
0.130438 -0.212766 0.272407
0.112608 -0.575120 0.759778
32.757567 -102.576332 143.810338
0.179349 -0.396168 0.488756
32.518500 -102.511998 144.026667
0.036364 -0.235550 0.218824
31.322667 -102.393331 143.644002
0.117195 -0.260007 0.268252
32.218133 -102.293666 144.187002
31.948633 -102.232333 144.166005
69.026932 -117.123001 147.675339
0.184356 -0.331789 0.020414
-0.189521 0.332519 -0.424500
67.828334 -116.217667 148.120336
0.024379 -0.130138 0.144522
0.593687 -0.901611 1.031604
1.040389 -1.818307 2.318333
68.175601 -116.717667 148.860998
68.536667 -116.797000 148.404332
68.258133 -116.513334 148.095337
0.050273 -0.057626 0.037445
64.334400 -118.015333 148.533000
-0.487523 1.111160 -1.227118
0.656071 -1.130448 1.455469
26.634267 -126.665667 157.483332
-0.122976 0.586485 -0.719519
26.460733 -127.047999 157.680664
29.495934 -124.511335 151.126999
0.414016 -1.579672 1.731792
-0.047262 -0.362506 0.626225
29.766467 -124.386668 150.946665
0.225033 -1.182243 1.687628
26.121200 -126.358999 157.325668
25.584733 -128.445330 157.244995
25.807267 -128.448331 157.302663
25.995600 -128.031998 157.321665
0.023968 -0.077085 0.084885
25.972433 -127.503665 157.666997
26.075000 -127.657664 157.600998
0.175068 -1.253196 1.730490
25.553099 -123.615334 155.678340
25.653933 -123.989670 155.267670
25.377600 -124.342000 155.678670
25.840034 -124.023003 156.553665
25.764533 -123.698334 156.295670
0.371868 -2.201467 2.543760
-0.041497 -0.934174 1.089312
-0.054259 0.190496 -0.491488
26.282500 -124.950002 156.378332
0.042361 -0.228379 0.273264
25.792200 -124.106336 155.502004
0.041235 -0.306171 0.318505
25.799234 -123.272667 158.841670
24.208967 -122.570333 158.619670
-0.188137 1.106339 -1.192194
0.797654 -2.412578 3.412917
24.326500 -122.679665 158.947001
0.537569 -2.555898 3.355735
24.152634 -123.295003 159.207331
24.190600 -122.848000 159.219666
25.531267 -125.572665 155.197001
25.700700 -125.442332 155.057002
0.029523 -0.044486 0.103886
25.781800 -125.872665 154.372335
-0.019168 0.161639 -0.097673
0.003377 -0.075774 -0.017084
-0.052224 0.711337 -1.186153
25.602000 -126.265999 155.943334
25.588167 -125.987666 155.469330
-0.011559 0.160744 -0.174064
0.025785 -0.154959 0.205551
0.097953 -0.410076 0.571909
0.005697 0.094764 0.067191
0.087971 -0.252911 0.152485
24.509834 -124.372332 160.830332
0.598891 -1.738348 2.629595
0.158389 -1.480525 1.939676
26.037333 -127.671666 165.275996
0.015255 0.102952 -0.150377
25.653500 -127.510999 164.952332
25.774666 -127.420664 165.404332
25.163300 -128.259666 165.108999
0.201312 -1.170718 1.533113
25.640867 -127.797333 165.536667
-0.117667 0.473976 -0.608206
25.652100 -128.213000 165.368663
25.709234 -127.077665 165.351334
-0.361804 0.550524 -0.938443
0.023574 -0.090073 0.073726
-0.148592 -0.614481 1.346818
0.610885 -1.053215 1.250719
0.181479 -0.150258 -0.097644
35.699933 -130.488998 153.676331
34.862300 -130.462001 153.791667
34.869565 -130.211334 153.787333
-0.020736 0.040282 -0.278920
-0.123925 0.516621 -0.363426
-0.114229 0.576195 -0.707207
0.592525 -2.118273 2.532281
35.664134 -130.314667 154.051666
0.712536 -2.571727 3.064582
0.089662 -0.600863 0.165039
0.067042 -0.466323 1.036749
35.703101 -129.456665 153.962331
35.415367 -129.321996 153.794668
-0.004831 -0.075320 -0.006853
26.914100 -126.717667 164.941335
-0.012551 -0.091123 0.192935
27.328267 -127.750003 163.294001
-0.099816 0.331196 -0.501063
0.063021 -0.148516 0.411739
27.020334 -128.931005 163.412003
-0.070858 -0.191914 0.027367
27.535467 -129.002004 163.271337
0.073989 -0.755872 0.866022
-0.017369 -0.052405 0.080373
27.825733 -127.709000 163.272669
66.713633 -117.590668 149.813334
-0.056239 -0.002306 -0.033287
67.218198 -117.444333 150.360331
-0.024677 0.040530 0.327013
0.023775 -0.149151 -0.159076
-0.069444 0.111130 -0.205801
66.368935 -118.880999 148.832001
66.672035 -118.958666 148.688670
0.092999 -0.169307 0.211074
66.303134 -118.360667 149.525996
0.128351 -0.069200 0.071217
-0.413366 0.743297 -0.936925
66.095901 -118.268000 149.422999
66.190099 -117.824666 149.395335
66.970800 -119.166000 150.743332
66.396866 -118.947667 150.414332
66.662165 -118.929001 150.645665
-0.309127 0.000899 -0.478247
0.541266 -1.406899 1.111395
0.071918 -1.091827 1.041177
48.749599 -115.595998 135.763667
62.009900 -116.042999 142.334330
63.608899 -116.037336 142.385000
0.060374 -0.200267 0.226175
62.847501 -116.624331 142.599330
0.095492 -0.319065 0.361219
-0.319342 0.589944 -0.751737
60.441332 -115.782333 137.731664
0.157958 -0.318470 0.588187
0.481072 -1.453752 1.745941
59.694300 -115.518333 141.536001
0.007343 -0.014729 0.018912
60.004667 -115.700002 141.345001
0.054994 -0.160094 0.346700
59.606766 -115.923668 140.591334
56.668734 -126.879000 141.727666
0.175370 -0.576938 0.392913
58.758933 -115.972666 131.251338
58.938833 -116.139666 131.297338
60.284767 -128.216334 127.447332
-0.292935 0.638897 -0.635317
0.102240 -0.112438 0.150200
61.597401 -126.132332 126.806666
1.965310 -4.153082 4.165444
-0.039711 0.146869 -0.111167
0.154904 -0.126954 0.225233
-0.198785 0.365261 -0.406535
61.483899 -127.498665 133.225337
62.293167 -126.287333 128.186999
0.026824 -0.278924 -0.008280
62.679967 -126.573336 128.411331
-0.284340 0.729517 -0.512357
61.836466 -126.558001 129.231664
61.459732 -126.527000 129.524663
-0.257636 0.486442 -0.551246
0.558445 -1.234816 0.940341
47.796434 -127.277000 132.789332
45.138700 -129.496668 135.638336
0.072188 -0.392092 0.438081
0.316670 -0.739444 0.749903
45.677299 -130.906667 135.953328
-0.030312 -0.237245 0.322434
45.940333 -128.190669 134.860006
0.228220 -0.746529 0.953733
44.724967 -127.121333 134.710002
0.372630 -1.086748 1.032298
47.254233 -128.087331 142.200663
49.000866 -135.114003 136.474670
0.185687 -0.487671 0.471400
0.249652 -0.390373 0.408976
48.992367 -134.894333 136.319672
0.305104 -1.000271 0.895027
48.628999 -135.215998 136.038666
55.449267 -116.000999 129.990667
-0.103503 0.238987 -0.238688
49.619567 -127.528999 130.094335
49.418233 -127.444667 130.189997
-0.113697 -0.108289 0.230650
49.657599 -127.286001 130.205668
49.746265 -127.155332 130.439000
49.806432 -126.625999 131.317001
0.143255 -0.388890 0.411165
0.217451 -0.403983 0.466716
58.229434 -115.901001 130.459000
57.520601 -116.400332 130.420664
0.001034 0.047573 0.003129
61.881767 -126.730001 129.283000
61.505033 -126.699000 129.575999
0.975881 -1.590917 2.333505
45.839799 -124.327334 134.455999
0.059487 -0.135493 0.026266
-0.013749 0.016651 0.076808
1.681035 -4.651207 4.965035
46.236666 -120.238332 133.292333
0.214671 -0.540023 0.615131
0.208800 -0.513154 0.441589
48.401000 -119.816332 132.502665
52.275668 -115.001668 129.231003
0.443693 -0.088555 0.154722
51.909833 -114.656334 129.184336
-0.184443 0.452522 -0.566778
0.095246 -0.364794 0.204712
-0.243121 0.529326 -0.632605
49.034800 -118.579336 132.436005
0.257599 -0.595813 0.628019
-0.043225 0.128724 -0.185313
52.068966 -130.911997 145.328664
50.702667 -132.347661 144.306997
53.606700 -131.227331 146.617335
-0.250716 0.642092 -0.833531
51.468933 -128.373334 145.713994
51.855568 -129.031667 146.334000
50.997367 -128.796000 146.100337
-0.118145 0.313017 -0.348186
54.156666 -129.294337 146.052002
-0.021678 0.040944 -0.026005
54.343699 -129.064000 145.965332
-0.772325 1.843624 -2.133965
0.603253 -1.410932 1.587684
-0.022016 0.054992 -0.010954
52.298601 -129.269999 145.688670
52.893934 -128.785334 145.750336
0.400514 -1.075517 1.121235
53.440432 -128.500336 146.134669
-0.180543 0.240787 -0.247562
53.958467 -128.022331 145.663330
53.719200 -127.283666 145.249664
53.728133 -127.311999 145.449666
53.906067 -128.067334 145.336004
0.742523 -1.747030 2.034471
53.391566 -126.759333 145.100998
53.083300 -127.029332 145.435994
52.837034 -126.966667 145.483332
1.347253 -2.020114 2.422176
65.271067 -118.782000 149.197998
0.469189 -0.830962 1.140048
65.021968 -118.635999 149.010335
0.000787 0.032394 -0.054633
65.638501 -119.029332 149.223994
65.788902 -119.196332 148.920995
44.549633 -130.465332 136.013667
-0.098761 0.330407 -0.317682
0.041012 -0.051494 0.060564
0.218324 -1.115754 1.134332
0.193020 -0.456681 0.512500
40.900366 -123.973666 135.169001
0.150197 -1.070583 1.228564
0.513340 -1.220301 1.401322
34.910600 -120.927333 137.029999
35.814200 -121.078331 136.965332
35.830700 -120.754331 137.039001
-0.030741 0.142803 -0.048539
27.660267 -111.863332 141.338999
27.874334 -112.112663 141.376333
-0.066561 0.329447 -0.383491
0.177833 -0.933515 1.205025
-0.084986 0.598304 -0.704546
-0.190439 0.190575 -0.286854
38.842200 -120.094332 138.154999
38.655734 -119.579999 138.127665
38.720966 -119.459999 138.016998
31.232667 -126.626999 137.749664
0.342954 -0.907803 0.947452
46.694333 -131.274663 133.993663
-0.013991 -0.327159 0.466607
45.236434 -131.344996 135.729665
0.185373 -0.997630 1.205204
45.066865 -131.607330 136.004333
-0.126670 0.336923 -0.309731
47.344233 -133.856669 133.848002
47.273399 -133.732666 133.506332
0.624774 -1.506453 1.709201
51.803534 -126.878665 145.976995
-0.356721 0.833531 -0.920510
-0.079491 0.270640 -0.316700
0.213368 -0.305868 0.350463
-0.220541 0.494812 -0.606540
0.000338 -0.000670 0.001066
65.714167 -115.333666 145.974670
-0.206436 0.377649 -0.480279
65.045502 -115.417999 146.953334
0.562418 -0.392340 0.365589
62.778066 -116.169334 146.744665
0.580135 -1.050412 1.272588
0.609100 -0.754262 1.204796
63.854333 -117.055333 148.325663
0.603632 -1.193385 1.450929
55.487101 -113.221001 141.593002
-0.051980 0.141613 -0.075207
0.088922 -0.530945 0.772901
55.371334 -113.647001 141.466334
0.768737 -1.591609 1.965877
55.797666 -114.512998 141.853668
40.380201 -118.079000 145.524333
39.422501 -117.941999 145.010000
-0.017062 0.227258 -0.242948
40.722200 -118.277334 145.849330
36.751834 -116.598666 146.647003
36.225933 -115.714333 147.233668
-0.098012 0.293640 -0.344075
35.445399 -115.402000 147.395335
-0.126331 0.681057 -0.827178
0.019833 -0.075260 0.138109
0.161180 -0.345214 0.426031
1.314229 -2.352793 3.071738
55.941367 -115.155998 141.839335
-0.528079 1.042244 -1.282596
57.090333 -112.695000 141.056666
0.142865 -0.261402 0.283644
61.722800 -112.787999 141.497670
61.417534 -113.222666 142.292002
1.927181 -3.391104 3.960194
-0.444256 0.828466 -0.988478
1.513978 -2.723843 3.412171
61.617134 -113.427333 141.936000
62.312101 -113.339333 141.902328
62.444668 -113.365334 141.574997
0.420952 -0.761548 0.960303
-0.027487 0.313102 -0.365584
62.584799 -112.847336 141.743668
-0.447284 0.858693 -0.888706
62.831501 -113.446002 141.424001
62.412800 -112.805669 141.432999
61.254534 -112.512334 140.047668
-0.132822 0.251296 -0.332198
61.046668 -112.767665 139.872665
0.195538 -0.437194 0.498233
61.695001 -112.652334 140.682002
60.944234 -112.546666 140.341670
0.622793 -1.025435 1.519408
0.571970 -1.085371 1.114001
60.192066 -112.477999 140.393000
0.706936 -1.339284 1.569803
-0.409632 0.813885 -0.992033
58.001334 -112.508001 141.359334
58.912833 -112.556666 140.871002
1.968472 -4.059335 5.160809
61.519967 -113.429334 142.822667
0.453575 -0.526550 0.882379
62.110967 -113.166003 143.071671
0.718139 -1.891790 2.023572
49.563766 -115.145332 135.921000
0.505148 -1.200801 1.355992
49.294333 -115.329666 136.227000
48.957167 -116.047999 135.984004
48.613501 -116.310666 135.426671
48.919501 -116.098999 135.563670
0.311543 -0.703220 0.818720
43.512700 -120.357333 136.307663
0.143920 -0.629537 0.561581
0.030491 -0.127316 0.047482
45.330766 -119.483668 135.241664
0.140172 -0.086308 0.122903
-0.114617 -0.034853 -0.057145
50.551633 -114.128670 130.764333
62.093901 -112.671669 135.457667
61.832200 -112.183332 135.107335
-0.270133 0.626449 -0.630074
61.779134 -112.571002 135.434001
0.411909 -1.016689 1.141083
61.646935 -111.962334 135.419337
61.800101 -112.317001 135.983332
-0.434067 0.598870 -0.863321
61.987034 -111.949999 135.741333
-0.138188 0.154707 -0.207673
66.663900 -124.977333 118.749334
67.417068 -126.753667 119.270668
1.503629 -2.763642 2.607282
68.163767 -126.565999 118.803001
0.682279 -1.401706 1.343167
0.375953 -1.046120 1.045855
1.215984 -2.325861 2.234208
67.697200 -126.220668 118.446335
67.680300 -126.495000 118.695669
0.380193 -0.564813 0.440100
66.845764 -125.269333 121.545001
66.406799 -125.121000 121.553335
-0.048119 0.153677 -0.163557
-0.060422 0.115001 -0.134965
0.540787 -0.906633 0.988220
67.611631 -125.509000 121.085335
0.269630 -0.301864 0.576653
0.101014 -0.252545 -0.150976
-0.001335 0.012197 -0.025840
-0.087277 0.178702 -0.138678
67.211533 -126.545001 120.463000
-0.433184 0.796413 -0.775560
0.655852 -1.265666 1.191117
67.068766 -117.241666 145.203669
0.061220 -0.089960 0.140040
66.989502 -116.470332 146.237000
66.853233 -116.348000 145.909668
-0.069652 0.133798 -0.155705
67.407801 -116.323001 144.263667
67.551768 -116.243668 144.471334
0.691278 -1.051567 1.338189
-0.181663 0.226376 0.122222
1.947431 -3.160007 4.212987
1.230909 -2.191728 2.769298
0.812503 -1.736755 1.978406
65.490702 -115.017667 142.177999
66.423800 -115.203667 143.280334
0.035107 -0.152003 0.175184
0.607148 -0.851287 1.275482
60.806234 -116.193334 136.527664
0.462326 -0.752956 0.931392
-0.189219 0.385143 -0.446823
62.483899 -115.468002 135.801666
-0.246936 0.427053 -0.418036
0.104067 -0.598182 0.525160
0.426467 -0.985104 0.849329
67.526967 -128.296997 123.921000
67.827034 -128.124331 124.021001
65.638334 -125.285334 122.443001
0.043987 -0.093151 0.085118
66.456431 -125.434001 122.009333
68.947835 -127.518000 122.331665
0.470544 -0.870564 0.836412
0.150342 -0.383128 0.325868
67.997002 -127.474335 121.795667
0.156840 -0.373012 0.450152
63.753699 -135.115336 116.467667
63.941265 -135.075333 116.402667
0.155041 -0.306365 0.180284
-0.064779 0.134412 0.007197
62.694665 -136.989334 116.394333
62.855300 -136.419998 116.877665
1.983133 -3.712224 3.368235
0.809089 -1.380894 1.583706
0.248538 -0.127270 0.336240
66.951566 -124.809003 119.167000
66.697667 -124.965668 119.215668
66.891134 -125.481000 118.273000
66.934034 -125.671000 118.304331
1.704512 -3.230137 3.050328
-0.150456 0.295284 -0.286281
65.926135 -126.602002 120.551666
0.055110 -0.039000 0.010116
0.147686 -0.227965 0.242507
66.871000 -126.484001 118.957670
0.374036 -0.688768 0.856151
65.179901 -114.407667 141.572332
-0.051680 -0.008200 -0.054133
-0.383293 0.310770 -0.799396
65.313634 -114.973335 141.584330
-0.045800 0.094892 -0.138420
64.991402 -114.679001 142.195999
2.386207 -4.313077 5.125217
0.291832 -0.553102 0.662130
-0.316842 0.636807 -0.849457
0.447438 -0.747884 0.940695
0.237791 -0.448515 0.650755
0.095621 -0.164527 0.105392
-0.023468 0.066390 -0.021979
64.663534 -114.019999 141.990667
65.337700 -114.107999 142.891998
65.106435 -113.932999 142.868001
-0.130764 0.201881 -0.249206
0.646902 -1.179471 1.515361
64.890200 -114.376333 143.356669
-0.372129 0.624013 -0.826538
65.922768 -114.527334 143.482335
0.599568 -1.032348 1.272085
65.364632 -114.704000 143.733668
62.590101 -113.026334 136.856003
62.674800 -113.233332 136.626333
62.518035 -113.136998 137.228002
0.138576 -0.376213 0.485056
-0.061809 0.131754 -0.121829
63.070000 -113.777000 137.477666
-0.013783 0.063914 -0.112859
62.601467 -114.128665 137.559336
62.657233 -113.960665 136.662999
0.198030 -0.249379 0.211896
0.076896 -0.148147 0.174741
68.632367 -117.663668 146.450333
68.293734 -117.894000 146.212336
-0.036046 0.073513 -0.091572
68.234398 -118.570999 146.983002
67.187398 -118.928665 147.618001
67.454033 -118.576998 147.701665
-0.280264 0.877253 -0.778905
-0.669426 0.903409 -1.458825
0.136969 -0.153601 0.074093
0.249924 -0.677795 0.604540
45.745801 -119.754003 134.328664
46.099967 -119.901667 134.171000
-0.029365 0.300645 -0.254509
45.831800 -121.036336 133.987330
45.487901 -120.968335 134.264664
45.392601 -120.616669 134.484329
45.106867 -120.535334 134.541662
-0.053146 0.277487 -0.349265
36.055333 -113.565002 141.264333
-0.052814 0.216906 -0.283752
-0.004047 0.058129 -0.007833
0.027370 -0.075953 0.077752
0.691598 -1.750963 2.403860
-0.002836 -0.156434 0.187203
0.029318 -0.096950 0.146565
35.733667 -111.920331 141.237335
-0.148133 0.455916 -0.590477
0.016632 0.082107 -0.096831
0.510802 -1.533649 1.892314
-0.151786 0.713650 -0.729136
36.443099 -112.926000 141.709671
36.451533 -112.150332 141.452332
36.511667 -112.535332 141.288330
33.793633 -114.972666 139.868998
33.781600 -114.668666 139.990662
0.664303 -2.943518 3.505894
0.065640 -0.172390 0.257269
21.716933 -140.375997 142.963333
20.941900 -140.856003 144.628998
0.050337 0.012448 0.003288
20.005267 -138.540334 146.005335
-0.206129 0.296866 0.053943
-0.099239 0.314182 -0.317981
-0.050105 0.111035 -0.131199
0.144779 -0.311162 0.304046
56.488633 -131.044001 130.462331
0.219036 -0.235553 0.206953
48.094000 -136.921997 131.781331
47.893967 -136.638662 131.911662
48.563133 -136.268331 132.227666
47.805434 -136.122330 132.580332
0.082012 -0.269202 0.247700
48.247367 -136.192332 132.956004
-0.225259 0.565341 -0.582453
42.614733 -133.070002 138.039668
0.691255 -2.004179 2.075272
41.763767 -132.992996 138.355667
-0.019620 -0.019700 0.022907
30.166433 -109.820335 142.592667
27.984233 -109.555000 141.946004
27.547366 -109.685000 141.966334
27.695166 -109.831332 141.785334
0.063833 -0.054120 0.153110
27.138467 -105.869001 144.243332
26.859966 -106.282333 144.341665
25.597367 -107.600998 142.813334
24.904867 -108.402000 142.845001
0.056337 0.015810 0.000370
0.122792 -0.557496 0.728557
25.734266 -108.349332 142.630000
0.054275 -0.103169 0.207849
-0.021863 -0.848606 0.932137
24.870000 -107.899000 143.479335
0.002782 0.128740 -0.136206
26.616467 -107.125666 143.189662
26.034000 -107.027000 143.593333
25.881400 -107.328334 143.845998
-0.175801 0.601978 -0.869260
26.720034 -106.733332 143.377665
0.000000 0.000000 0.000000
25.724100 -106.614998 144.031998
0.952307 -3.163110 4.425379
0.387681 -0.893735 1.015254
-0.034594 0.135743 -0.221007
51.177533 -112.370333 129.713669
0.106318 -0.117354 0.151940
0.075438 -0.161423 0.295097
50.932601 -112.996000 130.240336
50.309633 -113.025335 130.410334
-0.065445 -0.157028 0.046646
-0.284642 0.047664 -0.166908
0.350086 0.109364 0.120263
28.020633 -106.225665 142.721334
-0.044171 -0.478835 0.359825
-0.137235 0.616460 -0.669678
0.142309 -0.461497 0.665390
0.053665 0.185644 -0.124137
-0.005317 -0.085100 0.090460
0.105978 -0.366869 0.464399
