39.348133 -119.962001 149.182663
38.874034 -119.941332 149.278330
-0.146787 0.452191 -0.570498
0.260159 -0.828830 0.514109
-0.019136 0.139340 0.361543
0.416624 -1.306054 1.606519
38.793367 -120.805000 149.278000
0.452885 -0.930734 0.429624
-0.168786 -0.616091 0.880851
38.215333 -118.898331 149.059667
0.905945 -0.424430 0.358575
38.248567 -119.106331 149.145665
0.156693 -0.749471 1.023593
0.820173 -0.774388 0.642166
0.530653 -1.521874 1.810327
-0.048587 0.020381 -0.042786
0.001666 -0.004375 0.004934
50.017601 -128.454666 129.836665
49.602135 -128.748998 129.774999
45.434668 -122.692998 139.909668
0.083501 0.044492 0.078338
0.167324 -0.749532 0.948341
0.442305 -0.762108 0.949252
-0.031352 -0.070589 0.067423
0.021360 -0.008155 0.004701
49.298400 -129.903330 144.493332
0.349673 -0.845880 0.873049
49.399400 -129.755335 143.990336
49.501534 -130.210337 143.981669
-0.022316 0.058781 -0.068479
0.229671 -0.150138 0.305224
0.187213 -0.726745 0.805598
0.493282 -0.673939 0.853558
0.116800 -0.380672 0.645656
-0.091926 -0.644361 0.489109
38.232066 -130.046000 148.125666
38.120332 -130.245672 148.247335
0.194127 -1.097661 1.097528
0.104072 -1.141805 1.305552
26.869933 -133.238007 149.041672
27.327533 -132.842336 149.225667
26.959433 -133.447673 149.544001
26.836267 -133.011332 149.966665
-0.052422 0.278887 -0.321413
27.914333 -131.797002 149.937002
-0.022002 -0.164867 0.483158
0.241024 -0.343083 0.019796
27.948367 -132.097331 149.574336
0.119856 -0.601728 0.753088
-0.185395 0.840437 -0.997481
26.109334 -133.788996 149.800995
25.885167 -133.470001 149.037328
-0.059221 -0.179753 0.074976
0.466523 -2.224178 2.500815
29.816533 -131.249995 150.321335
0.275297 -1.230574 1.534390
0.253722 -0.989935 1.184774
46.817599 -134.856003 140.453334
46.410199 -134.477671 140.465001
0.092026 -0.322520 0.344806
-0.377980 0.911690 -0.871581
0.309040 -0.951744 1.054147
0.318467 -0.660113 0.536251
47.174833 -135.294668 139.555003
46.671167 -134.193670 139.518997
46.506067 -134.262670 139.781998
47.293533 -134.667002 139.450002
47.605433 -134.927333 139.598999
47.440666 -135.055333 139.955332
0.064170 -0.186280 0.191731
-0.091488 0.287624 -0.289804
53.310933 -136.585332 145.003332
0.346024 -0.857036 0.957049
52.425067 -136.227666 144.326665
0.487963 -1.000668 0.885517
-0.364367 1.011895 -1.033737
51.112434 -136.676671 142.534002
1.179760 -2.728253 2.863927
-0.238731 0.704216 -0.692957
1.335356 -3.267521 3.691168
-0.035828 -0.136154 0.171356
52.117067 -136.899999 140.798665
0.351063 -0.930521 0.960109
-0.338832 0.976174 -0.952302
-0.139200 0.478466 -0.476549
51.734100 -136.687002 142.470332
0.494987 -1.325222 1.246654
33.983266 -134.664668 152.832998
32.533967 -134.172333 152.756332
32.502368 -134.156001 152.592997
0.127525 -0.334756 0.492102
0.026679 -0.020918 -0.052715
31.694800 -134.996663 152.840998
0.046794 -0.169779 -0.239489
0.226751 -0.536404 0.871562
-0.088472 0.419604 -0.478701
31.088567 -134.381002 152.726669
-0.013070 0.001395 -0.072322
0.040050 -0.009547 -0.462168
-0.048332 -0.044962 0.424807
0.466573 -1.020043 1.228455
0.722590 -1.768881 1.935122
-0.274075 0.700562 -0.742456
-0.161637 0.427208 -0.463279
55.106866 -135.701335 148.860662
-0.058949 0.273027 -0.317471
54.980799 -135.275335 149.232666
34.911767 -133.679998 152.074331
0.056256 -0.507753 0.611079
34.568667 -133.768667 151.764994
34.950434 -134.257329 151.744670
0.015229 -0.018133 0.025783
-0.119562 0.436355 -0.506061
34.307833 -133.655670 152.831996
34.521133 -133.486669 152.561661
33.876266 -133.603338 153.049662
34.233067 -134.468333 152.177002
34.365566 -134.566666 151.936005
0.123839 -0.626896 0.526966
0.021722 -0.440356 0.261878
34.545433 -134.315669 151.826335
34.652167 -134.378337 151.603668
-0.005977 0.123092 0.065383
-0.192139 0.676537 -0.857750
32.547834 -133.695002 152.694331
0.213894 -0.476081 0.131911
-0.047093 -0.689139 0.586713
32.776433 -133.355667 152.734329
0.220517 -0.759421 0.871589
31.472666 -131.445333 152.590332
0.335490 -1.255041 1.504536
32.283300 -130.803329 152.197001
0.691874 -2.744998 3.028815
0.731896 -2.230470 2.470992
40.628501 -123.608335 147.832331
40.476134 -123.835668 148.285670
40.641300 -123.523336 148.199000
-0.406010 1.311710 -1.489575
0.218879 -0.753411 0.841007
0.286417 -0.952415 1.060530
38.851367 -128.239667 146.388331
39.215199 -129.109334 145.676997
39.356466 -129.046005 146.120997
-0.001029 0.299367 0.206201
-0.051298 0.297504 -0.784429
0.330203 -1.135497 1.352070
0.617074 -2.071141 2.253958
39.974700 -128.899002 145.725337
-0.566047 1.354555 -1.547524
37.365000 -130.740000 144.313670
37.610733 -130.501668 143.908666
1.089284 -3.816407 4.203869
-0.093261 0.363799 -0.383566
36.631533 -130.373667 143.860998
-0.023199 0.133789 -0.154119
0.156330 -0.558108 0.637586
36.313933 -130.297668 144.546997
36.787800 -130.054337 145.090001
0.016083 -0.032289 0.012850
0.122139 -0.305599 0.299159
38.493566 -130.400004 144.047999
38.456867 -130.497665 144.711670
0.059637 -0.288662 0.334870
37.796499 -130.001338 144.748332
38.772232 -129.763667 144.907669
-0.139450 0.437531 -0.495078
0.235966 -0.878790 0.995314
38.033067 -132.381663 141.677668
0.647884 -2.402523 2.350767
0.282605 -1.986889 2.128094
37.824401 -132.574331 142.233668
0.512462 -0.660594 0.718972
37.811868 -132.099330 142.187668
41.540066 -122.630000 146.929998
41.390066 -122.368332 146.849665
-0.178690 0.341525 -0.414913
41.456366 -122.693001 147.382665
42.031733 -123.228999 146.485667
41.693900 -123.455999 146.932668
0.828982 -2.874798 3.164010
0.733198 -1.836472 3.233043
41.156966 -123.137667 146.845332
30.037333 -128.743998 141.346334
0.744838 -3.065406 3.002818
0.050587 -0.005698 -0.145367
-0.050423 0.024018 0.079842
-0.016066 -0.350140 0.259059
29.358500 -128.542669 142.759664
29.152833 -128.364670 142.663666
29.368700 -128.382668 142.842331
0.091085 -0.230983 0.351594
-0.109849 0.340226 -0.353167
30.261833 -128.275335 142.209666
0.069972 -0.631164 0.711050
0.036893 -0.236395 0.346351
30.130433 -129.080002 141.779002
30.178666 -129.118337 142.175669
0.031188 -0.188410 0.211652
33.520632 -131.504339 142.102666
0.065295 0.011407 -0.014191
33.487700 -130.849665 143.073334
34.745800 -130.404668 142.156662
34.782934 -130.491333 142.551000
0.295757 -1.538226 1.834527
35.619867 -132.238332 142.889002
-0.292855 -0.231744 0.626474
35.567368 -132.426331 143.104665
28.974567 -138.621999 149.205002
0.187351 -0.846136 1.059784
0.308027 -1.469558 1.562808
29.934667 -138.445994 148.774333
0.225217 -1.024641 1.105294
29.385401 -138.445663 148.675664
0.070993 -0.165046 0.176180
26.382100 -137.717005 144.737000
26.187000 -137.550669 144.454330
-0.018224 -0.020316 0.017616
-0.129265 0.728703 -0.752973
0.104043 -0.282968 0.410625
0.622312 -2.383576 2.514012
0.207648 -1.305023 1.784199
24.069033 -139.565002 145.638331
0.077594 -0.006030 -0.142891
0.144339 -0.663879 0.848620
23.626567 -139.643667 146.626002
0.180145 0.520897 -0.300524
27.581167 -137.697998 149.836004
27.253700 -137.439331 149.699666
27.103667 -137.664001 149.135000
0.124806 -0.624273 0.680435
-0.097042 0.528957 -0.574897
26.215600 -137.612671 147.516663
0.005056 -0.017651 -0.011621
0.279067 -1.478517 1.601744
0.223383 -1.876914 1.839486
0.291605 -0.771258 0.807534
-0.081529 0.293190 -0.308370
0.230103 -0.699758 0.619963
-0.119622 0.315076 -0.339048
52.690267 -136.047333 145.053665
30.005533 -131.549998 152.005997
0.086753 -0.423449 0.505828
29.763500 -131.878332 152.062998
29.943300 -132.665670 151.841003
-0.206465 0.789333 -0.953262
0.329380 -0.665335 0.845305
28.150800 -123.457334 149.102000
0.232601 -0.891689 1.072503
28.923533 -122.755000 148.854665
0.137214 -0.707388 0.879872
27.586333 -123.018667 149.344996
0.009457 0.009889 0.025767
0.013592 -0.048143 0.022726
27.478167 -123.009000 148.468664
0.517606 -2.288414 2.912735
29.225166 -127.627335 150.626333
28.990733 -127.614667 150.788335
0.023463 -0.371291 0.430670
28.984299 -128.708664 150.398336
29.398033 -128.419668 150.504669
28.850334 -128.200666 151.100998
0.401276 -1.268417 1.310285
0.516485 -1.579383 1.458387
52.075433 -136.911667 133.513336
52.925367 -136.438334 133.767670
0.824745 -2.055281 2.025640
1.336521 -3.849844 3.683645
0.866129 -2.494971 2.385079
51.354734 -137.142665 132.753001
-0.194052 0.322638 -0.312678
-0.167530 0.612141 -0.541990
0.151326 -0.632898 0.570731
52.308366 -136.563334 132.728668
0.012740 0.040724 -0.032992
0.159441 -0.492255 0.472253
34.447267 -136.020335 139.938334
34.470833 -136.240667 140.003337
49.682166 -136.123667 138.704997
49.507266 -136.027334 138.570663
-0.123531 0.433578 -0.442545
0.016856 -0.415129 0.433595
0.692600 -1.440692 1.537112
-0.053475 0.198417 -0.231697
51.628433 -136.636668 139.960999
51.709567 -137.121333 139.674001
51.411166 -136.994670 139.622335
-0.196640 0.410671 -0.398162
-0.026068 0.300701 -0.476657
-0.086172 0.027343 -0.233050
0.040455 -0.083984 -0.170408
-0.396145 -0.229331 0.278715
0.136337 -0.370241 0.417382
51.903333 -137.449666 141.000331
0.058831 0.080647 0.005734
52.506032 -137.599670 141.652664
51.915234 -137.067668 141.649668
51.706066 -137.178335 141.487666
0.309948 -0.565774 0.658222
52.627566 -137.741002 141.300664
54.433434 -138.326335 144.419668
54.375933 -138.175669 143.991669
-0.308336 0.915755 -0.983430
53.961067 -137.733668 143.177333
53.723399 -137.618668 141.911331
53.395832 -137.614003 142.031001
0.529247 -1.638119 1.689665
0.414839 -0.630652 0.581984
54.011033 -137.338333 143.018661
0.170608 -0.495003 0.464720
-0.107001 0.444105 -0.488606
56.960701 -131.480001 148.649333
57.389234 -131.279999 148.491669
0.144026 0.159118 0.012300
57.647766 -131.551005 149.018000
-0.288007 0.402197 0.324127
0.117031 -0.322456 -0.493720
58.014699 -132.958003 150.108332
55.133200 -133.969666 149.566335
55.132167 -133.791997 149.337001
-0.413611 0.616527 -0.876517
0.002453 0.339260 0.067746
60.495166 -137.811000 122.730334
0.365366 -0.853798 0.748561
60.958566 -137.695338 122.058334
60.993000 -137.888672 122.012001
0.731836 -0.590455 0.749729
60.858566 -138.093002 122.264999
0.288787 -0.686121 0.622035
62.681267 -135.154338 121.899333
0.609114 -1.280314 1.108197
0.145331 -0.191475 0.051951
0.272856 -0.574328 0.521900
57.640133 -135.467005 123.172333
-0.191143 0.522812 -0.233973
-0.009242 0.054769 -0.289341
-0.316203 -0.367336 0.411162
0.462854 -0.092409 -0.026681
58.975433 -135.416000 123.837667
-0.093104 0.194229 -0.145122
0.137349 -0.378962 0.458083
67.033132 -130.549332 130.544332
0.733611 -1.603706 1.508924
66.696465 -130.028330 129.968338
66.612798 -130.196665 129.559001
51.130867 -114.850998 132.804672
1.022518 -2.147131 2.488154
0.107979 -0.183735 0.285091
0.567454 -1.205354 1.519592
51.129233 -115.143333 132.404338
48.854333 -117.534332 137.911672
0.007779 -0.221305 0.243271
-0.070857 0.124351 -0.085875
47.990067 -117.484334 137.778336
48.184634 -117.622668 138.431671
0.165469 -0.464104 0.519390
47.916433 -117.480001 138.249334
48.118066 -117.906334 138.618673
48.225567 -118.126668 138.761673
48.203233 -118.469666 138.361669
-0.023606 0.061251 -0.064876
55.869900 -115.684336 140.315669
0.484480 -1.137958 1.509970
56.484100 -116.044334 140.094335
-0.040428 0.199553 -0.117370
56.292268 -116.005999 139.966665
0.111022 -0.270741 0.417548
51.267867 -115.389666 136.579000
-0.042897 0.102648 -0.100820
50.548300 -116.057666 137.172002
51.182166 -115.233332 137.163335
51.334633 -115.517334 137.034332
50.280300 -115.757668 136.668666
50.352367 -115.420664 137.123667
0.116429 -0.242262 0.437497
0.206334 -0.438639 0.436762
51.147133 -115.675001 137.390666
-0.319471 0.692598 -0.929867
55.242700 -115.310333 139.504664
0.156497 -0.300113 0.467452
55.778767 -115.623998 139.701996
55.746300 -115.468000 140.038666
55.869834 -116.033000 139.070333
0.324546 -0.551537 0.675799
55.233866 -115.645332 139.328664
55.438199 -115.955666 139.143331
-0.049019 0.156352 -0.059893
55.720066 -116.407667 139.398331
54.469966 -116.063667 139.371668
54.825033 -116.140668 139.476003
53.839500 -115.233665 139.222666
0.462910 -0.705332 1.287100
1.162083 -2.779699 3.033748
54.226167 -115.154002 139.625666
54.105067 -116.285665 138.069331
54.060801 -116.033666 138.285665
-0.143831 0.167923 -0.208096
54.019666 -111.727000 133.204666
-0.044532 0.289276 -0.395818
0.378835 -0.817054 0.988815
52.584900 -111.682666 131.910004
52.782766 -111.720332 132.114003
0.300865 -0.369511 0.443245
53.589867 -111.365997 131.866999
53.237799 -111.579333 131.546000
0.094994 -0.165203 0.116939
53.850333 -111.271665 132.466670
53.840065 -111.432999 132.645671
52.941667 -111.809001 132.519333
53.015933 -111.607333 132.396001
52.403834 -112.551336 132.659332
-0.459324 0.789007 -1.038284
0.482316 -1.127603 1.380677
0.268281 -0.549454 0.701674
0.588592 -1.329730 1.545384
-0.423432 1.228754 -1.322074
2.704906 -6.097142 7.018038
52.607732 -113.806000 133.579336
0.542657 -0.572103 0.605087
1.566260 -2.969329 3.644045
52.369066 -114.142667 134.126668
52.140433 -114.461001 133.818003
0.362426 -0.651514 0.871546
51.690468 -114.274000 133.508001
0.400638 -0.924699 1.023799
51.313601 -114.711665 133.412003
0.133951 0.151834 -0.077761
0.694012 -1.677952 1.886574
51.544401 -113.991333 132.768997
55.387433 -111.158333 134.918335
55.522100 -111.234667 135.202672
0.001049 0.003258 0.003951
54.969500 -112.020665 135.221670
55.116534 -111.973333 135.390004
0.612862 -1.195150 1.466854
55.063333 -111.163335 135.589666
0.356537 -0.763698 0.907735
0.046995 0.266515 -0.088468
53.683899 -113.257334 135.337667
-0.218805 0.565360 -0.657354
53.018500 -112.967667 135.166336
-0.324544 0.305963 -0.506120
0.145765 -1.175014 0.943125
0.257739 -0.487365 0.628833
54.524867 -112.991336 135.490662
0.984191 -2.593925 3.764681
0.112476 -0.107382 0.054580
-0.115762 0.257121 -0.386567
0.195132 -0.635940 0.932230
36.681033 -103.826668 152.388997
25.815467 -123.810333 161.365336
0.698042 -3.111263 4.006204
26.150167 -123.962334 161.311335
25.831000 -123.671000 161.017670
0.004741 -0.813873 1.175443
26.366433 -123.931333 160.570669
0.180601 -0.981110 1.391082
-0.061682 0.192754 -0.278891
33.247899 -104.917669 151.726334
0.130153 -0.660686 0.804723
-0.252142 0.720773 -1.027985
-0.316396 0.382157 -0.321752
56.975567 -135.527669 150.399668
0.340353 -0.537158 0.507109
0.140303 -0.489815 0.693264
57.144400 -135.069336 150.491002
-0.295444 0.488714 -0.654477
0.162484 -0.456243 0.514650
0.211333 -0.536107 0.453159
-0.709613 1.712340 -1.886550
57.104600 -137.220001 149.394669
0.682440 -1.550748 1.688054
57.071000 -136.506337 150.209335
26.566367 -125.157333 162.019669
26.990233 -124.887001 161.990667
26.447934 -124.939667 161.702001
0.018926 -0.038839 0.024914
0.413972 -0.901681 1.276313
0.706677 -1.841760 2.522036
0.027134 -0.036861 0.057831
27.055900 -124.937332 161.194667
58.125135 -128.752665 143.740336
-0.390709 -0.268345 0.048390
0.297460 -0.805270 0.868115
0.468657 0.167632 0.105154
57.469868 -128.281334 143.801000
57.496934 -128.504664 144.060669
0.549175 -1.343320 1.220729
57.409334 -127.982999 144.034002
57.538467 -128.360331 144.134338
58.304401 -129.007996 143.704666
58.717300 -128.962336 144.082667
-0.002577 0.044114 -0.058502
0.216815 -0.323696 0.517776
58.123567 -128.480662 143.151001
57.755967 -127.802330 142.957331
0.010740 -0.196736 0.160674
58.308434 -128.246666 143.366002
58.022934 -128.520996 143.570002
58.143767 -128.480667 143.693670
0.756675 -1.983082 2.404542
40.806967 -120.098666 139.475998
44.728500 -122.460999 140.206665
45.028201 -121.991999 140.440664
44.823467 -121.904332 140.454330
0.499702 -1.507061 1.536668
0.460745 -1.018386 1.276000
45.558601 -122.100665 140.217662
-0.119557 0.360694 -0.436603
-0.289045 0.646853 -0.765687
-0.318076 0.665658 -0.752844
0.530929 -1.686924 1.965902
0.006752 -0.027488 0.069697
44.342033 -121.814667 139.847331
44.066466 -121.874001 140.021332
-0.311251 0.049327 -0.210261
-0.025701 0.438920 -0.352111
50.423667 -117.661001 138.065664
50.242867 -117.306335 137.949000
0.243726 -0.960472 1.137159
50.172366 -116.722003 137.643331
-0.140759 0.349204 -0.436186
1.093219 -2.026370 2.389803
50.775534 -116.753001 137.694667
-0.018087 0.149539 -0.246830
-0.150970 0.023002 -0.304304
45.936199 -119.510666 138.625000
46.108266 -119.561666 138.537669
-0.261305 0.430950 -0.468577
46.394300 -119.682666 138.751002
46.255800 -119.856333 139.003001
46.349267 -120.008998 138.925334
46.046734 -120.158666 138.946330
-0.203435 0.528276 -0.830196
42.561367 -120.739998 138.846664
42.867767 -120.946665 139.002996
0.496846 -1.396875 1.594127
-0.115119 0.339472 -0.381126
42.660334 -120.560666 138.063665
41.571800 -120.334000 138.929662
41.473700 -120.171666 138.794332
0.716021 -1.795861 1.947787
1.007112 -2.633319 2.832765
47.429634 -125.493668 136.594330
0.661724 -1.139856 1.093637
48.068901 -124.745333 137.889002
0.107497 -0.039586 -0.093803
0.290789 -0.720871 0.615220
0.495309 -1.053852 0.979131
48.168700 -124.014333 137.547333
48.315434 -123.967000 137.154002
47.776868 -124.713336 136.991999
47.597368 -124.646334 136.769663
47.878768 -124.345334 136.548335
47.613234 -124.473333 136.639333
47.837200 -124.475667 138.419337
47.846034 -124.616002 138.435669
0.182660 -0.103385 0.393548
0.660989 -2.059319 2.263475
47.938100 -124.438001 137.916336
47.978900 -124.282667 137.752665
0.511459 -1.464364 1.279701
47.661266 -124.102333 138.610336
47.663867 -123.814334 138.703003
48.687033 -125.984334 134.859339
48.428033 -125.897001 135.353002
0.150088 -0.452167 0.370777
48.413266 -126.228002 134.763667
48.573799 -126.084002 134.631002
-0.010797 0.008992 -0.005359
0.010894 -0.026371 0.037009
-0.515572 1.221819 -1.368986
50.348567 -121.698667 136.191335
50.696534 -122.055003 136.487330
0.061496 -0.145647 0.170945
50.866800 -122.506335 135.539998
51.159266 -121.030668 135.828334
51.271567 -120.949999 136.062002
51.438100 -120.818331 135.949336
51.427933 -120.820666 135.689336
-0.082377 -0.465854 0.261144
60.396600 -136.132665 137.157995
-0.132743 0.083096 -0.067162
59.304501 -137.018672 137.208664
59.305668 -136.960002 136.868663
59.674168 -136.611664 135.436335
59.509267 -136.932663 134.547333
0.430870 -1.054414 1.031662
58.068367 -136.880330 135.132670
57.973700 -136.839666 135.684001
0.049858 -0.046202 0.067833
0.444646 -1.163572 1.254516
55.654667 -137.826996 148.517334
55.908867 -137.884333 148.145671
55.791300 -138.003998 148.181000
55.875401 -137.237996 148.911667
-0.100602 0.128155 -0.142925
0.037031 -0.216322 0.309617
-0.310746 0.692025 -0.570950
56.898900 -137.867666 148.746668
56.951167 -138.013667 148.621999
0.498925 0.008334 -0.004190
0.076638 -0.092775 0.573809
-0.302379 -0.301608 0.373270
0.269435 -0.662613 0.385266
-0.367983 0.031936 -0.100602
-0.302418 -0.229514 0.260426
0.383543 -1.239406 0.726022
56.251867 -136.293330 136.423665
-0.506142 1.299754 -1.533891
0.288196 -0.734035 0.681453
59.588801 -138.916000 130.692668
59.380433 -138.727000 131.294337
60.065800 -132.696671 130.421331
-0.176934 0.179108 -0.146763
0.083536 -0.043619 -0.072546
53.832400 -136.251333 133.208333
54.070433 -136.328334 133.720668
1.035309 -2.479781 2.203239
53.651733 -136.245331 133.570333
53.460934 -134.583338 131.021998
54.002734 -134.802338 131.182999
54.333633 -133.849665 130.771337
0.199123 -0.501306 0.448785
0.008124 -0.019791 0.020200
-0.099139 0.228247 -0.246623
0.243394 -0.610448 0.559839
54.032467 -133.747996 131.585673
0.572922 -1.375773 1.368994
54.997133 -134.256663 130.425334
-0.335771 0.818089 -0.724187
1.133207 -3.132540 3.145490
1.038621 -2.830577 2.696826
57.589167 -137.007329 134.508667
0.249494 -0.610485 0.660787
2.460478 -5.293122 5.136163
0.044813 -0.013829 -0.252879
0.967159 -1.760442 2.198216
62.768766 -130.786667 129.515330
50.862233 -121.147331 137.628998
50.460601 -121.234665 138.035995
-0.030110 0.011573 -0.173846
50.674900 -120.991669 137.115331
0.000000 0.000000 0.000000
0.555919 -0.691224 0.517376
0.332316 -0.817498 1.177669
52.199966 -125.194667 139.449666
-0.000266 -0.806383 0.974872
52.919401 -124.909668 139.555669
0.337628 -0.362992 0.111910
-0.219205 0.581541 -0.542415
0.177340 -0.387378 0.458465
0.627997 -1.189306 1.169830
-0.077773 0.177843 -0.184200
55.384000 -126.067668 139.204336
55.433999 -126.438001 139.003332
0.157014 -0.714659 0.603401
-0.078596 0.503276 -0.464186
48.330933 -126.781001 135.361333
47.948433 -126.273666 135.679001
48.025667 -126.589333 135.559001
48.737667 -126.212334 135.665665
0.103987 -0.284324 0.315288
48.492767 -126.000000 136.073334
0.378694 -1.109024 0.840143
0.011438 -0.028763 0.023184
53.562466 -125.155668 138.194331
52.690734 -124.923335 138.255997
52.669134 -124.788335 138.418666
-0.030141 0.312543 0.277441
0.189741 -0.607327 0.079490
0.120603 -0.386298 0.478743
52.590132 -124.804334 137.350332
0.286380 -0.976028 1.137432
53.495033 -124.736666 138.079666
0.067174 -0.067354 0.024486
0.169117 -0.161728 0.172098
-0.064500 0.048291 -0.040289
-0.072979 0.289151 -0.231967
0.041324 -0.088738 0.208621
-0.220975 0.547640 -0.598425
50.849101 -125.000331 137.346334
0.368701 -0.903362 0.985815
-0.016885 -0.054466 -0.073074
50.174601 -124.103999 136.344335
50.285900 -124.065333 136.880000
49.989166 -124.145002 136.895330
50.668566 -125.014000 136.552333
50.049768 -123.488665 136.605337
50.015967 -123.513997 136.720001
49.381067 -125.361000 134.831004
0.007647 -0.023053 0.015703
1.020600 -3.108260 3.479713
0.454525 -0.683130 0.682719
48.754733 -123.412333 137.364334
49.279299 -123.783335 137.318670
0.006273 -0.173514 0.162123
50.733101 -133.127996 130.002660
0.149107 -0.195014 0.210215
-0.291766 0.445814 -0.398774
0.900975 -2.294884 2.272714
51.386901 -132.848999 130.107997
0.473859 -1.169395 1.171122
-0.038180 -0.222339 0.141826
0.354517 -0.665714 0.695882
50.731700 -131.460999 129.674667
51.495401 -132.526337 130.059998
51.659101 -132.267003 130.085668
53.815166 -129.345998 132.144002
1.012784 -1.932192 2.117596
0.192336 -0.859993 0.858963
53.265966 -129.059331 131.694000
2.196662 -5.371773 5.478153
0.327372 -0.652587 0.705945
0.476722 -1.111710 1.143374
1.525893 -3.629971 3.712218
-0.320336 0.714556 -0.760474
53.243066 -127.328331 131.644333
0.854028 -2.062219 2.128778
53.789934 -127.940999 131.361003
-0.067135 0.153425 -0.154776
54.065500 -128.105665 131.977666
54.065701 -128.426999 131.603673
0.059981 -0.282924 0.219813
0.155248 -0.347693 0.383642
48.836400 -131.213669 130.381002
-0.383636 1.071386 -1.042360
0.435724 -1.168332 1.156562
-0.174636 0.571985 -0.614290
48.199801 -131.831004 130.350667
48.560267 -131.757665 130.655670
0.005696 -0.034816 0.026759
-0.284850 0.718695 -0.720567
-0.122781 0.105254 -0.228630
-0.105247 0.360617 -0.464449
0.329922 -0.898584 0.918493
0.251836 -0.687637 0.695050
50.764300 -131.572673 130.197332
0.311609 -0.958630 0.954891
50.650899 -130.726334 129.602997
48.791833 -130.803665 130.353333
0.498063 -1.330196 1.342895
-0.286419 0.723131 -0.746170
48.054399 -130.713003 130.247996
48.697567 -126.059003 133.371999
-0.047640 0.185431 -0.226397
-0.082746 0.191014 -0.144196
49.019135 -126.028669 132.915334
0.172539 -0.375326 0.563762
49.174767 -126.023669 133.508001
49.660432 -125.507334 133.329330
49.711199 -125.550334 132.901667
0.020911 -0.030587 0.057589
54.596934 -125.288663 132.877670
-0.157428 0.376513 -0.360295
0.016706 0.074362 0.056385
56.101466 -125.562665 133.552002
0.048374 -0.113284 0.084829
0.279359 -1.469903 1.213506
56.219100 -124.836667 134.095998
0.867403 -1.933326 2.054339
-0.014651 0.032995 -0.039370
57.432500 -125.798332 134.713669
0.061978 -0.148042 0.146118
-0.588020 1.273686 -1.347455
57.518800 -126.473000 134.286667
0.057427 -0.015571 0.106052
-0.011038 -0.018318 -0.017175
-0.007573 -0.092710 0.046078
57.099800 -125.971331 136.157333
0.009831 0.001848 0.118517
57.033134 -125.260666 136.142670
0.263746 -0.611506 0.562990
0.030913 -0.153038 0.036222
0.201942 -0.540408 0.639540
53.330966 -124.908333 133.628667
53.313600 -125.178335 133.318665
52.725834 -125.107002 132.919001
52.257866 -124.832667 133.511668
-0.048894 0.261403 -0.257952
0.984717 -2.825655 3.109963
0.389549 -0.940611 0.933451
0.761854 -1.919080 2.407591
50.987067 -124.497668 134.965332
50.859133 -125.061000 135.392334
-0.160999 0.376248 -0.360588
49.519501 -125.714668 135.182668
49.490767 -125.939000 134.955999
-0.083596 0.264141 -0.278523
0.028837 -0.021452 0.028681
49.007567 -124.153002 136.147669
-0.254667 0.576836 -0.614387
-0.024952 0.024075 0.059154
-0.123019 0.120002 -0.123717
0.200678 -0.508815 0.522728
49.472867 -125.132665 136.674662
0.129502 -0.274567 0.303273
50.566334 -122.939669 135.994329
50.841466 -123.326001 135.804662
50.572333 -122.886002 135.905329
0.061965 -0.118190 0.131210
50.936400 -125.061333 134.911336
51.096367 -124.437335 134.653336
0.622477 -1.189728 1.289859
50.440166 -124.805333 134.206665
0.070170 -0.391769 0.318696
0.253775 -0.539606 0.699729
49.559266 -125.301666 135.192337
49.559266 -125.221331 134.878672
-0.029570 0.052887 -0.121433
49.625401 -125.142667 135.551336
49.473001 -125.238332 135.853668
0.106949 -0.413628 0.358440
50.270400 -124.997332 134.787003
-0.111601 -0.051873 0.160832
1.906877 -4.243553 4.840922
52.884333 -122.813334 135.465998
55.099267 -122.758003 135.315999
54.683668 -123.032669 135.536001
55.060167 -123.250336 135.621668
-0.170113 0.212781 -0.287499
55.153699 -123.951001 135.885671
0.444498 -1.246689 1.190113
0.392912 -2.164986 1.992836
0.597268 -0.880160 0.993753
0.815679 -2.041955 2.203358
54.407834 -123.717000 136.404999
0.264805 -0.583432 0.587303
0.057825 -0.326256 0.390080
56.334702 -124.607333 136.558670
55.391467 -125.010666 136.650996
55.588334 -124.739001 136.511663
55.744434 -125.233002 137.089330
0.373100 -0.694867 0.784760
56.992666 -134.769002 126.803332
56.779332 -134.875666 126.775998
0.228305 -0.568098 0.472052
55.585133 -134.426997 130.028330
55.496067 -134.992666 130.113332
55.894732 -134.035334 130.051997
0.072132 -1.149354 0.979472
0.559140 -0.464204 0.687840
0.268948 -0.429135 0.411543
-0.465577 0.669309 -0.616020
56.268434 -134.747665 129.372335
56.061433 -134.918330 129.498998
56.057967 -134.123667 130.740336
55.851367 -134.427333 130.718999
55.942699 -134.668666 130.664001
0.148619 -0.076550 0.131561
0.455193 -0.543703 0.694263
57.307133 -127.787000 134.654673
-0.082342 0.288127 -0.009498
0.073288 0.098573 0.110221
0.212203 -0.476657 0.512204
0.033678 -0.059455 0.220269
-0.086321 0.113625 -0.148267
-0.138383 0.428373 -0.356292
-0.280516 -0.282744 -0.078589
59.773366 -137.130335 136.091665
-0.224226 0.509644 -0.450567
0.366889 -0.837081 0.961401
0.253559 -0.587300 0.603267
59.041433 -131.582001 143.306330
46.183099 -133.942001 138.749669
46.389666 -134.092667 138.492666
46.071599 -134.034002 139.113337
46.116366 -134.260000 139.210002
0.350565 -1.054535 1.062930
0.091040 -0.474903 0.612929
46.664266 -134.642003 138.966665
-0.043149 -0.372385 0.164342
0.234023 0.023974 0.296816
-0.124022 -0.061854 -0.302085
-0.269222 0.531893 -0.533473
0.172568 -0.168711 0.243882
49.700900 -134.977336 130.121663
49.638733 -134.913005 129.957331
48.334399 -135.274663 132.954330
48.474400 -135.642329 132.663005
0.147121 -0.281821 0.168946
49.009200 -135.965663 133.281331
49.782734 -135.919332 132.796997
1.014447 -3.076422 2.907919
49.895933 -135.863002 133.638667
49.822333 -135.174332 133.225001
-0.011182 -0.021149 0.020689
56.736567 -134.799332 127.473333
0.794715 -2.022640 1.758524
56.454000 -134.952332 127.490334
1.231489 -2.825551 2.611991
-0.384369 1.039901 -1.178416
56.753567 -135.329997 125.957667
-0.021046 0.185038 -0.022961
0.390995 -0.859120 0.839231
56.406466 -135.431330 126.716334
56.212966 -135.841665 127.224335
56.069400 -135.446996 127.717333
-0.081899 0.096920 -0.013692
0.210121 -0.497028 0.475713
56.179633 -136.164332 127.868665
56.003267 -135.819000 128.017998
56.735034 -136.430669 127.886002
0.390818 -0.849970 0.858461
-0.376206 0.937277 -0.899566
0.405105 -1.079752 0.961621
-0.349724 0.844495 -0.760646
0.547190 -1.320208 1.242902
57.006934 -136.904332 126.878667
57.298500 -136.600001 125.986000
57.408267 -136.388000 125.891668
0.678879 -1.492179 1.738226
0.086482 0.034197 0.219561
55.710934 -135.567332 129.525665
56.214400 -135.074331 127.874003
56.055033 -135.269994 127.988002
0.575955 -1.099850 1.064243
0.163229 -0.693243 0.524272
1.520246 -6.026324 6.225952
34.169067 -135.538666 139.189000
34.032767 -135.657664 139.161667
-0.162802 0.057723 -0.084404
0.476118 -2.515193 2.591309
34.391968 -135.858999 139.611333
0.055580 -0.453691 0.443380
34.559600 -135.992996 139.440333
0.064876 0.122376 0.100342
0.069301 -0.062670 0.047500
31.642800 -127.719666 138.789332
31.640400 -127.730667 138.419668
32.129133 -128.034668 138.581334
0.050500 -0.176779 0.180333
0.462795 -1.312444 1.463479
29.482966 -124.924667 139.168666
29.764900 -124.923999 139.572673
30.158333 -124.876668 139.234004
0.042720 -0.390459 0.367945
-0.101203 0.702348 -0.543780
30.241067 -125.140335 139.264338
39.901400 -120.837667 148.895004
39.909467 -120.568001 148.674337
0.363317 -0.655834 0.768926
0.513555 -1.526946 1.914443
40.089367 -120.926333 149.083669
40.332867 -121.194333 149.043335
40.178134 -121.081998 149.305333
0.102718 -0.120922 0.019973
41.115000 -121.078667 148.436666
0.268185 -0.777884 0.956338
0.134010 -0.274653 0.083282
-0.025901 0.087107 -0.124473
41.330700 -121.737666 148.154332
50.257133 -134.198995 145.035665
0.069156 -0.222208 0.241745
50.705301 -133.689000 145.026667
50.326667 -133.834330 144.587331
50.009267 -133.929331 145.057332
-0.311243 0.792910 -0.885280
1.416612 -3.622511 3.860348
-0.557208 -0.012769 0.197247
0.582170 0.005610 -0.194335
-0.326947 0.076339 -0.037860
0.356140 -0.087230 0.013057
-0.203548 0.575631 -0.481766
-0.152649 0.476854 -0.788539
-0.210940 0.217456 -0.126430
52.817767 -133.617996 146.009333
0.553204 -1.053943 0.947848
0.149731 -0.447382 0.871220
-0.396139 0.552222 -0.672100
0.198913 -0.091582 0.014013
53.003334 -132.865667 145.830002
53.506601 -136.227005 146.023666
53.016668 -136.715001 145.857666
53.179801 -136.636337 146.396337
0.058565 -0.151011 0.147180
-0.078200 0.333503 -0.462489
-0.245738 0.449135 -0.431839
0.307491 -0.735805 0.745980
58.066332 -128.404999 142.217672
0.050605 -0.077348 0.001264
0.504945 -1.154789 1.264716
-0.302403 0.556964 -0.634843
58.524433 -128.998998 141.971995
0.365331 -0.798101 0.907835
57.876600 -128.692332 141.607335
0.313889 -0.542286 0.672226
0.523097 -1.253499 1.337684
0.299693 -0.681529 0.767636
58.810966 -130.007329 142.408000
58.236167 -130.051666 142.276667
58.627566 -130.215332 141.670329
0.334604 -0.765259 0.804535
0.303151 -1.056575 0.948898
53.465432 -131.573669 145.674998
0.188603 -0.420982 0.501194
53.443399 -131.322332 145.483663
0.116203 -1.232170 0.843632
0.923783 -2.063875 2.064018
57.846032 -128.190336 140.343669
57.780899 -128.126666 140.106003
58.256866 -128.745000 139.417002
-0.082537 -0.164150 -0.066827
0.201326 -0.160606 0.503496
57.724466 -128.025665 139.010330
-0.194454 0.546544 -0.622989
57.711399 -127.974665 139.561335
0.692926 -1.491758 1.638588
-0.397553 0.882255 -0.948046
56.288933 -136.490667 141.347331
-0.037638 0.053590 0.380537
-0.117049 0.314236 -0.272446
-0.084027 0.192453 -0.163377
59.189332 -135.968333 138.531001
0.403526 -0.999557 1.050441
56.978433 -137.596670 143.291000
57.003133 -137.483002 143.424998
52.725567 -114.336001 136.740005
53.049899 -115.199333 136.752670
-0.117281 0.315348 -0.375173
52.087667 -115.080668 136.367004
0.328988 -0.672696 0.811292
-0.165529 0.258046 -0.276294
-0.126751 0.287323 -0.340475
51.891533 -114.973999 136.210337
52.563666 -114.524335 135.746663
0.146253 -0.431683 0.506109
53.175634 -115.689331 137.239003
53.043667 -115.513997 136.993337
0.253970 -0.528493 0.770620
0.071408 -0.261098 0.156259
53.259734 -115.303998 137.428335
38.400398 -116.514999 145.401332
38.269765 -116.244001 145.363998
0.075379 -0.142741 0.555656
38.070100 -116.305333 145.999003
-0.175387 -0.073086 0.202781
38.485499 -116.642665 145.692668
0.044278 0.084851 -0.652222
0.278849 -0.480608 0.406953
54.389167 -121.727000 134.966670
54.171633 -121.671333 134.904002
53.796967 -122.419668 134.636002
54.206200 -122.278999 134.952998
54.047100 -122.368334 134.651998
-0.205278 0.810464 -0.917215
0.390372 -0.886115 0.486177
-0.492888 0.330386 -0.088923
52.265034 -116.034332 131.951670
-0.505699 0.690728 -0.816197
0.281892 -0.105099 0.179477
44.207733 -120.223000 137.788330
-0.127346 0.263737 -0.340585
44.046633 -120.353666 137.809331
42.556067 -120.198331 141.145335
-0.218540 0.558208 -0.684931
0.122771 -0.359536 0.397714
0.135259 -0.399360 0.461700
43.384167 -120.746000 140.355331
-0.046615 0.183464 -0.192389
42.258834 -120.017667 140.052999
-0.177420 0.483693 -0.572874
-0.096355 0.351503 -0.398654
0.415722 -1.179383 1.385843
-0.042628 0.107879 -0.110366
42.593600 -120.359665 139.343999
-0.110933 0.345949 -0.399028
41.213467 -119.796000 139.305333
0.186591 -0.556135 0.643434
0.549291 -1.529518 1.446760
50.660567 -136.613668 131.123001
50.336300 -136.504669 130.949331
-0.322543 0.820490 -0.818047
50.774200 -136.977671 131.026001
-0.026291 0.068164 -0.069574
50.518600 -137.327006 130.882334
0.085697 0.032430 0.055573
50.676633 -137.488673 131.265335
50.308100 -137.093333 132.102000
0.589669 -1.851067 1.711809
49.920300 -137.111669 131.660329
0.119861 -0.199569 0.199622
63.365167 -137.906001 117.778333
63.257100 -137.592672 118.559334
0.889659 -1.700870 1.501922
62.216733 -138.205338 119.982333
62.055767 -138.194336 120.172666
62.603100 -137.782664 120.099002
62.628501 -137.949666 121.190666
62.778234 -138.579330 121.749334
-0.033165 0.063437 0.006504
62.840068 -138.730331 122.469332
2.310050 -4.923462 4.083384
64.706734 -137.534002 121.302335
64.630000 -137.353338 122.378667
1.179863 -2.274593 2.009561
1.357690 -3.093796 2.729662
-0.042160 -0.606615 0.148088
64.674767 -137.775330 120.079666
64.715200 -137.542333 119.823001
-0.004107 0.113497 -0.052238
0.214290 -0.555894 0.368373
0.253999 -0.536762 0.110897
0.094051 0.112435 -0.010489
1.119578 -2.368548 1.868294
65.651901 -136.120000 116.343666
65.679403 -135.957336 116.151334
65.766301 -136.203669 118.034665
65.799100 -136.427002 117.982000
65.794868 -136.032333 117.873334
1.033650 -1.929468 0.935665
0.686337 -1.323731 1.881980
65.221667 -136.926331 116.814667
64.955266 -137.059998 116.873001
0.118898 -0.179099 0.458271
65.499334 -136.699331 116.842667
0.006192 0.006621 0.131041
65.522034 -136.051661 116.613665
65.941401 -136.550334 117.162000
65.849500 -136.745672 117.420334
65.909866 -136.468674 117.549001
0.042638 -0.104976 -0.022397
65.399501 -136.112000 117.306000
65.109433 -135.424998 117.144000
65.023900 -135.442668 117.487666
-0.109700 0.191115 -0.219074
65.747068 -135.508998 117.477002
65.240468 -135.712336 117.508998
-0.151268 0.184433 -0.215241
0.002016 -0.016345 0.034085
52.054034 -133.294332 145.326665
-0.024039 0.074588 -0.105362
51.836567 -133.954000 144.998667
0.023163 -0.124400 0.066865
52.552834 -133.783661 145.643331
0.088576 -0.128926 0.124859
0.015786 -0.114878 0.092713
52.120866 -133.002665 144.621333
51.630400 -133.621999 144.943665
57.118266 -135.584997 141.710332
-0.107718 0.242802 -0.253997
58.519567 -137.340332 143.294001
0.557359 -1.532594 1.477996
0.474132 -1.036163 1.053500
58.796900 -136.547668 143.538666
0.630068 -1.493633 1.552631
56.330667 -135.772003 141.213664
-0.261432 0.571005 -0.590611
-0.038799 0.096831 -0.106085
55.996667 -135.475667 140.278330
-0.047975 0.125580 -0.118262
61.625100 -134.459666 148.130335
61.703801 -134.543666 148.377335
-0.196751 0.467866 -0.563053
-0.001700 0.158268 -0.026821
61.885034 -134.539668 147.937668
1.102234 -2.119909 2.618735
-0.184497 0.452784 -0.456440
61.967868 -134.411006 147.502335
0.039957 -0.131110 0.107225
61.839667 -133.668671 147.983327
0.455444 -1.187878 0.892062
61.947168 -133.508006 147.138667
1.380419 -3.136207 3.373279
60.054400 -135.637004 149.187002
60.776801 -136.129669 148.686335
-0.171526 -0.056505 -0.099115
-0.121106 0.627642 -0.645868
60.711201 -136.552002 148.497670
60.702634 -136.744334 148.644669
0.494863 -1.047954 1.207740
0.079873 -0.446521 0.232481
-0.063788 0.161294 -0.178399
0.047369 -0.486687 0.416509
0.339006 -0.502324 0.600076
0.033902 -0.023167 -0.052046
-0.190251 0.490924 -0.542229
0.365410 -1.043020 0.985278
52.685633 -136.410670 135.013336
-0.000896 0.085152 -0.086182
52.308100 -136.743663 133.877665
-0.025312 0.031519 -0.071280
0.409412 -1.060617 0.991400
51.492167 -136.563334 134.219666
52.805033 -135.773666 137.616002
-0.077019 0.036102 -0.143863
52.016767 -135.577998 136.862671
0.367029 -0.942248 0.950763
-0.036868 0.201833 -0.197930
51.374034 -137.379339 134.265004
-0.142502 -0.727861 0.192866
57.086800 -137.372335 128.324000
57.217167 -137.253667 128.264999
57.071233 -137.090001 128.166336
-0.063203 -0.207100 0.484006
57.707868 -137.072337 127.382334
0.491152 -0.733455 0.356635
57.294701 -137.097336 127.279335
0.403418 -0.655530 0.702370
0.239451 -0.637972 0.681078
0.022212 0.094838 0.187255
55.704767 -135.753332 129.663661
56.920900 -135.128001 128.629664
56.412999 -135.839671 129.223999
0.340502 -1.477310 1.289077
-0.150995 0.279209 -0.218716
0.654311 -2.227937 2.107551
56.501832 -135.457001 128.822998
0.432588 -0.991760 0.976717
60.684001 -134.623667 131.638331
-0.268752 0.582623 -0.489879
60.355000 -138.837997 129.066330
0.216345 -0.429974 0.420213
-0.035682 0.124126 -0.083020
60.434700 -139.028330 128.625666
54.000801 -136.379003 135.561000
0.098967 0.014224 0.089524
52.782000 -137.180003 139.411667
-0.096736 0.272157 -0.280551
0.876858 -2.003076 1.919016
53.111301 -136.624669 135.259669
54.046266 -130.361669 131.743332
53.816600 -130.329336 131.887665
0.936784 -2.059200 1.742491
53.804200 -129.859334 132.049332
-0.088501 -0.116550 -0.110940
53.425233 -134.608668 131.802333
0.353154 0.063847 0.123634
0.532796 -1.307915 1.348072
53.107466 -134.797333 131.647334
0.269389 -0.857345 0.795514
0.084184 -0.059378 -0.032621
0.085734 -0.077125 0.304234
0.199820 0.214021 -0.238934
60.162300 -129.872335 138.353002
60.098234 -129.913671 138.126002
60.074933 -129.639669 138.095337
0.823061 -1.758522 1.858633
59.357667 -129.249003 138.324005
59.343534 -129.614670 138.749339
0.082082 -0.144537 0.151815
60.105534 -129.973333 138.602666
0.144033 -0.231061 0.189291
0.452793 -1.229208 1.116490
0.185146 -0.095982 0.219210
0.003822 -0.402085 0.318900
56.427133 -126.879664 133.756668
-0.122220 0.397722 -0.340034
0.172901 -0.370138 0.422918
56.646234 -126.668666 138.454671
56.577999 -126.669332 137.665665
-0.064195 0.129643 -0.135375
56.087632 -126.505666 138.227666
55.794033 -126.424667 138.226664
55.882167 -126.474332 139.495000
55.854432 -126.662666 139.443665
0.017715 0.292651 -0.061097
56.856401 -127.290998 139.681666
56.907833 -127.100332 139.703669
0.134835 -0.394987 0.490648
-0.176063 -0.028082 -0.141871
56.594434 -126.734665 138.974670
0.033214 -0.072164 0.102708
-0.214344 0.487295 -0.566315
0.352656 -0.661570 0.668273
56.004967 -126.684331 140.292999
56.150632 -126.956998 140.092997
56.065966 -126.919665 140.575999
0.588618 -1.434551 1.698480
55.471800 -125.798668 138.691671
0.408801 -0.595574 0.420446
0.167530 -0.070468 0.068684
58.143300 -129.074666 139.250000
0.691584 -1.728003 2.302021
0.666805 -1.420650 1.333542
58.173467 -128.695669 139.835668
58.031466 -128.568670 139.970668
57.813400 -129.084005 139.829997
0.241885 -0.512815 0.568113
57.818033 -129.193003 140.033000
0.022133 -0.076575 0.051601
53.640100 -129.796997 131.063670
53.811634 -129.064667 131.444672
53.533100 -129.110001 131.238668
0.558990 -1.370637 1.398894
0.403435 -0.951376 0.791369
58.176233 -128.801666 140.442332
58.093333 -128.630000 140.332998
0.676015 -1.360898 0.738754
0.703645 -1.127232 0.596782
0.671179 -1.472644 1.461461
58.350800 -129.256332 140.524333
0.038238 0.210156 -0.272973
28.882033 -115.705335 143.525665
28.689466 -116.187335 143.841995
28.527967 -116.566335 144.062663
0.008798 0.094758 -0.089551
0.174942 -0.620423 0.783299
29.557167 -116.283999 143.901662
29.642967 -116.166000 143.674662
30.095067 -119.233335 143.549001
30.544867 -119.003667 143.411001
-0.060418 -0.017728 0.029484
30.193100 -118.887670 143.313670
0.058862 -0.016753 0.011783
0.324054 -0.213247 -0.188185
-0.336876 0.259761 0.143276
0.182799 -0.309505 0.294944
-0.147088 0.298559 -0.295813
0.394057 -0.176255 -0.274769
-0.384874 0.220241 0.224645
30.981600 -118.424334 144.258998
30.805433 -115.347666 142.092997
0.549694 -1.048354 0.849057
0.448513 -1.095571 1.062029
0.235999 -0.993971 1.306706
-0.051971 0.442976 -0.857936
30.934933 -115.879333 142.220327
0.339310 -1.318952 2.174062
31.101400 -115.793332 141.895330
31.126434 -115.617666 141.817663
31.267767 -115.602999 141.636998
45.122667 -130.728333 141.083664
44.839300 -131.122335 140.834661
44.291833 -130.831670 140.730998
44.187533 -131.169337 140.738998
43.775300 -130.666672 141.218333
0.053166 -0.039149 0.020764
43.725867 -130.403671 141.456334
44.667699 -130.309001 141.325999
43.781500 -130.284002 141.363663
44.690566 -130.264999 140.744329
0.072358 -0.209649 0.249009
42.789399 -130.159668 142.243668
0.007677 -0.068927 0.045564
42.701266 -130.480662 142.589671
0.159111 -0.534451 0.556288
42.789132 -129.893000 142.613998
0.185477 -0.465289 0.592068
43.054300 -129.794668 143.000000
-0.023130 -0.142802 0.138310
42.862900 -130.670329 142.178335
43.251766 -130.305328 142.225667
0.122119 -0.246099 0.246288
-0.178643 0.689009 -0.646223
0.463552 -1.121278 1.206178
-0.028486 -0.888618 0.956350
31.599300 -136.322667 142.735336
-0.000217 -0.174859 0.241328
31.843401 -136.217331 142.278666
0.025084 -0.176900 0.177476
-0.022891 -0.047994 0.063408
35.554234 -130.731333 146.565669
35.696200 -130.533335 146.705002
35.813900 -130.636668 146.321335
-0.104000 0.300645 -0.133060
0.190779 -0.487612 0.641720
0.221451 -0.095679 0.062665
-0.006509 -0.317639 0.036868
-0.005874 0.180468 0.152392
36.546000 -130.182999 146.386668
0.137772 -0.527499 0.468482
36.175901 -130.350332 146.414998
32.688766 -130.551336 143.010340
0.060794 -0.108679 0.095546
32.106634 -130.346339 142.313670
30.252567 -129.306000 143.410995
0.083768 -0.346920 0.403019
0.117704 -0.463702 0.625371
30.707967 -129.955668 143.185664
30.761267 -130.219671 143.241664
0.004612 -0.018306 0.022401
30.615367 -129.853338 142.627335
0.035465 -0.452359 0.411741
32.195867 -131.068339 142.311335
32.303467 -130.848007 142.113668
32.148933 -130.495672 141.770335
0.283958 -1.257719 1.382707
0.322493 0.006191 -0.057476
-0.362235 0.101799 -0.020571
-0.612685 2.137767 -2.076034
0.162963 -0.537288 0.274710
29.418400 -130.952337 146.157003
-0.206836 0.782526 -0.541023
0.123691 -0.410845 0.192864
29.782633 -130.198334 145.922668
31.257067 -130.609665 145.596664
0.134507 -0.138842 0.089281
27.680367 -125.390666 143.605331
-0.101801 0.340242 -0.431562
0.138155 -1.316615 1.292247
27.095000 -125.772331 144.279002
0.036388 0.362737 -0.129742
-0.056025 0.351612 -0.402573
25.473834 -125.844002 145.818334
0.045190 0.202568 -0.081121
22.683100 -124.165332 147.764994
23.156767 -124.373001 147.879664
0.374159 -1.629715 1.900525
30.227600 -130.644999 150.334666
30.470500 -130.491328 150.026332
0.199748 -0.851663 0.988122
29.845067 -130.591995 150.219996
0.141580 -0.549371 0.655662
28.928200 -131.248667 150.470668
29.500301 -130.767329 150.220332
-0.221224 0.921055 -1.131836
0.230087 -0.636585 0.757802
0.229539 -0.485637 0.613657
0.022018 -0.374147 0.384942
30.186700 -129.594666 148.389664
30.728300 -129.296666 149.127996
0.408986 -1.569337 1.972582
-0.152826 0.180688 -0.263147
0.158558 -0.725863 0.867953
30.772533 -128.388000 149.154999
0.050880 -1.037087 0.976617
28.072701 -132.626333 151.061671
27.698967 -132.928670 150.954000
0.102607 -0.714192 0.760170
0.139963 -1.141634 1.186997
27.857533 -131.956334 150.192668
26.769433 -127.685000 145.279663
26.891467 -127.396667 144.937332
-0.004221 -0.013705 0.015087
0.264668 -1.699597 1.947008
0.136680 -0.084903 -0.183757
26.886000 -128.152003 145.757334
25.876133 -125.313334 145.467667
0.274850 -0.596813 0.744269
26.311266 -124.610667 145.105667
26.313100 -125.195335 144.676671
26.487366 -124.991002 144.560333
0.202220 -0.555320 0.617463
-0.202590 0.445544 -0.733346
27.333000 -129.188670 149.293004
26.444267 -129.007665 148.992335
0.013845 -0.006770 0.060693
0.062937 -0.111626 0.102380
26.749200 -129.364003 150.061000
-0.012210 -0.193394 0.190301
0.021011 0.112705 -0.094572
27.056433 -128.813334 150.048665
24.480067 -125.074666 147.269333
-0.083770 0.309845 -0.351255
24.092400 -125.926000 147.584666
24.009334 -125.613665 147.171997
0.174491 -1.276027 1.537218
0.150682 -0.772318 0.894461
24.576134 -128.577001 149.076330
25.315967 -128.968333 148.926666
0.363031 -1.934474 2.248518
-0.033660 -0.812606 0.963516
25.284967 -128.740331 148.658997
0.059890 -0.120505 -0.030624
-0.084907 0.640269 -0.589740
-0.061119 0.571020 -0.594299
30.760267 -129.845001 143.663996
0.329408 -1.093841 1.322579
0.243015 -1.464394 1.129678
28.704534 -131.894328 145.880335
0.664118 -2.819630 3.181210
28.651800 -131.503998 145.822001
28.857300 -131.645330 146.109670
0.256655 -0.250763 0.391113
27.860633 -132.151001 146.197667
0.000779 -0.189388 0.268713
28.590600 -132.605667 145.458333
-0.053327 -0.137582 0.163010
-0.228314 1.061215 -1.148253
28.668833 -132.789668 144.795670
28.619333 -131.636998 146.397669
28.619500 -131.356333 146.303335
0.218149 -0.204268 0.396520
0.436985 -2.230059 2.529422
28.717267 -131.525665 146.814667
-0.148132 0.686554 -0.804076
28.280333 -131.149002 147.570669
28.568700 -130.148336 147.071335
28.804267 -130.393000 147.092997
0.072510 -0.587396 0.456021
0.137138 -0.657072 0.684736
-0.084635 0.364061 -0.414089
27.588767 -133.012334 145.278666
27.645400 -132.727666 145.440333
27.436967 -132.517665 145.819331
0.106346 -0.437863 0.445902
27.867967 -128.630000 144.379003
27.829767 -127.919998 144.374339
0.184166 -0.981954 1.134279
26.640233 -124.166667 146.247996
26.687700 -124.642334 145.475998
0.056473 -0.253009 0.267225
-0.123683 0.544701 -0.650019
26.061066 -124.205999 146.197662
-0.027394 0.202618 -0.187624
0.294794 -1.359376 1.573706
25.659866 -124.610001 145.941666
0.029623 -0.185322 0.207144
27.095634 -124.196999 145.551000
26.755601 -124.834002 145.213333
-0.014049 0.027111 -0.045507
0.160136 -0.972742 0.897128
29.241034 -122.888336 148.381332
0.127791 -0.547248 0.647586
28.402867 -122.854335 147.730998
28.602900 -122.674334 147.836334
28.667034 -123.264669 148.658335
29.101167 -123.186668 148.616999
0.005483 -0.019252 0.032368
28.015600 -123.044334 148.158330
-0.005503 -0.004472 -0.011843
29.298166 -126.541667 141.284002
29.193266 -126.692998 141.236669
0.046933 -0.350941 0.351639
29.414000 -127.083000 141.665334
29.027233 -126.655001 141.847997
0.016329 0.289235 -0.437752
-0.085136 0.050069 -0.015984
0.860477 -3.351882 3.686581
0.710742 -2.931185 2.851082
32.905633 -137.215998 147.086670
32.933367 -137.038330 147.189000
0.148703 -0.659736 0.657169
0.385006 -1.449083 1.577233
34.594899 -134.586334 145.366333
0.155541 -0.712289 0.747943
34.706699 -134.630666 144.977997
31.065400 -131.676666 145.352666
30.832134 -131.759669 145.486664
0.301546 -0.783984 0.930625
30.259267 -132.431000 145.331329
33.901066 -136.114329 145.713003
34.172600 -136.056000 145.141673
0.039756 -0.094032 0.087961
33.060399 -136.717000 145.235006
33.339667 -136.645665 144.885671
0.037156 -0.243208 0.242531
-0.019981 0.073414 -0.084861
33.736666 -135.588003 146.208333
0.147250 -0.472316 0.511757
0.004296 -0.011344 0.005869
-0.169430 0.124146 -0.025038
31.508500 -136.127670 143.868337
31.838567 -136.151001 143.614334
30.978200 -136.438004 143.478668
30.865800 -136.034337 143.953669
0.116995 -0.089868 -0.033330
31.627533 -136.833333 144.009669
0.041035 -0.147836 0.144595
0.007134 0.093950 -0.132359
30.728699 -136.168335 144.260000
31.129100 -136.842667 144.434998
30.777800 -133.808334 143.386332
-0.190570 -0.019678 -0.142221
0.054201 -0.223302 0.311655
30.843567 -133.957331 142.728999
30.498467 -134.005335 143.165665
-0.175472 0.433017 -0.501153
-0.134079 0.683319 -0.717649
31.295467 -133.491333 142.955999
31.407134 -132.891001 142.660995
-0.040800 0.263716 -0.245228
0.040373 -0.196913 0.216101
29.560434 -134.417002 143.994665
0.052247 -0.199328 0.282770
29.429867 -133.716003 144.411667
27.873266 -133.334335 144.528005
-0.017411 0.532102 -0.527232
